0.360494 0.00783084 0.0311589 0.672549
-0.469233 0.00146584 0.115997 0.647059
0.0883168 -0.0895304 -0.0372384 0.788235
0.195254 -0.0717663 -0.352443 0.658824
0.27005 -0.0546753 0.0490858 0.694118
0.247372 0.0332978 0.166219 0.682353
0.211652 0.00547058 -0.3074 0.653922
0.177922 -0.0379387 -0.0217616 0.796078
-0.0602477 -0.0329163 -0.361325 0.643137
0.0138168 -0.064477 0.263483 0.686275
0.256369 0.0120699 0.17352 0.678431
-0.292619 -0.00964335 -0.057105 0.670588
-0.586268 0.0130765 -0.126294 0.780392
0.217818 -0.0418685 0.325932 0.6
0.203201 -0.0179889 -0.337177 0.623529
-0.279191 -0.0249484 -0.220982 0.662745
-0.527393 0.027109 0.24271 0.647059
-0.338137 -0.0528953 -0.100692 0.664706
0.250689 -0.0174237 -0.324748 0.686275
-0.0175458 -0.072933 -0.381979 0.67451
0.268378 0.073323 -0.266381 0.698039
-0.199183 0.016697 0.436256 0.644608
0.110912 0.0141266 -0.434118 0.654902
0.0661795 0.101383 -0.172827 0.807843
0.0802492 -0.0172541 -0.051849 0.839216
-0.236337 0.0960702 -0.0877069 0.745098
-0.0415943 0.0280434 -0.329948 0.686275
-0.00413887 -0.0950309 0.199313 0.720588
0.0919125 -0.0943891 0.0999695 0.823529
-0.0344659 0.118672 0.0709113 0.862745
0.290475 -0.0609327 -0.419375 0.631373
-0.286773 -0.0163794 -0.199988 0.67451
-0.364538 -0.0144623 -0.0619229 0.65098
-0.203581 -0.0395074 0.0463467 0.681373
-0.30325 0.0626252 -0.00970199 0.682353
0.392799 0.0369514 -0.169081 0.607843
0.132665 0.0295748 0.267912 0.680392
0.451185 0.0385712 -0.149142 0.627451
0.415878 -0.0389905 -0.101945 0.631373
0.202241 -0.0851927 0.182828 0.686275
-0.123319 0.0127966 -0.247911 0.690196
0.224711 -0.0637619 0.470522 0.631373
-0.210303 0.0255469 -0.0182897 0.729412
-0.449348 0.0720749 -0.208357 0.65098
0.246159 -0.059181 0.218166 0.682353
0.263609 0.0541598 -0.105573 0.712745
0.225947 -0.0802047 -0.0447798 0.701961
0.374577 -0.053074 -0.20491 0.673529
-0.342354 -0.0140881 -0.248906 0.627451
-0.252832 -0.106046 -0.238598 0.686275
0.412507 -0.0430071 0.247606 0.620588
0.0438833 0.00898515 0.14577 0.7
0.069946 -0.0436671 -0.292502 0.691176
-0.0541134 0.0147096 -0.420342 0.647059
0.197928 0.0638195 -0.219257 0.690196
0.394834 -0.0327911 -0.131423 0.623529
-0.453688 0.0103953 0.101924 0.623529
-0.294341 0.00303235 -0.175025 0.654902
-0.12661 0.0184859 -0.064766 0.733333
-0.305248 -0.0599818 -0.264121 0.604167
0.0119918 0.0732958 0.0203205 0.768627
-0.324184 -0.0224289 0.00118188 0.67549
-0.541425 0.0115657 -0.155365 0.6
0.112688 -0.00815969 0.396466 0.682353
0.332623 0.0341612 -0.156759 0.682353
-0.0584128 0.103353 -0.00580538 0.781373
0.0326348 0.0564025 -0.418669 0.65098
-0.121313 -0.0607794 0.136517 0.72549
0.261187 -0.044534 0.0592925 0.690196
-0.0367114 -0.0522378 0.36218 0.615686
-0.433363 -0.0525539 -0.143827 0.607843
0.112556 0.0856726 0.0426467 0.823529
0.207837 -0.0192772 0.32317 0.682353
-0.202131 0.00171626 -0.174717 0.709804
0.330098 -0.0632484 0.305594 0.666667
-0.0113233 -0.0439729 -0.319965 0.686275
-0.0735089 -0.0724885 -0.286855 0.718382
-0.208167 -0.0247875 0.0900331 0.682353
-0.154243 -0.0211895 0.436014 0.635294
-0.00596569 -0.111669 -0.208317 0.721569
-0.67106 0.0187378 -0.284791 0.631373
-0.254279 -0.095148 0.195612 0.686275
-0.135171 0.0329498 -0.0826638 0.847059
0.157785 -0.0664855 -0.202644 0.690196
-0.0791696 -0.0724103 0.232559 0.672549
-0.329163 0.094957 -0.0041419 0.698039
-0.370051 0.012266 -0.258752 0.65098
0.104829 -0.0385176 0.334413 0.639216
-0.146775 0.00344522 -0.286061 0.666667
-0.217026 0.0208279 0.31091 0.681373
0.31924 0.0251608 0.252642 0.607843
0.290143 -0.0669375 -0.217103 0.681373
-0.300456 0.0495573 -0.362545 0.622549
0.247883 -0.0921894 0.178218 0.686275
-0.0614668 -0.0484931 0.213339 0.685784
0.220022 -0.0462852 -0.448041 0.635294
-0.25316 0.0437692 0.211859 0.647059
0.240659 0.0688396 -0.134221 0.721752
0.385616 -0.0125439 -0.242819 0.654902
-0.0533377 0.0811169 -0.21071 0.729412
0.260987 -0.111483 0.129853 0.691115
0.0384557 -0.01069 -0.395116 0.678431
0.22318 -0.0094691 0.323825 0.607843
-0.433792 0.0106598 -0.0786114 0.666667
-0.0187868 -0.00409841 0.291957 0.690196
-0.0862051 -0.0645605 -0.517558 0.639216
0.215639 0.0250845 0.103039 0.690196
-0.113563 0.0460525 0.386033 0.6
0.280674 -0.057603 0.322214 0.611765
0.170484 -0.0431902 -0.241199 0.690196
-0.129868 -0.0509572 -0.482573 0.603922
0.3929 -0.0147934 0.289313 0.654902
0.295789 0.103436 0.144836 0.690196
0.236167 -0.0795908 0.0591755 0.692157
0.525568 -0.000210704 -0.193487 0.612745
-0.0881476 -0.0196682 -0.375726 0.690196
-0.0332244 -0.0317457 -0.114686 0.738235
-0.330671 -0.0601848 0.203432 0.627451
0.178051 -0.0660643 0.0996003 0.698039
0.430976 -0.0655602 0.152777 0.630392
0.130425 -0.00743441 -0.403939 0.631373
0.0652056 0.130584 -0.15655 0.780392
-0.26747 0.0352258 -0.133895 0.682353
0.299261 -0.0558809 0.255375 0.686275
-0.47173 -0.0498364 -0.028115 0.662745
0.305215 -0.105635 -0.00751224 0.698039
0.28178 0.00747658 0.0263042 0.709804
0.218398 0.0854575 -0.0536125 0.710539
-0.42629 0.0247787 -0.116607 0.669792
-0.141131 -0.0972596 -0.256114 0.686275
-0.266343 0.0104979 0.0787843 0.716483
-0.0422113 0.0616871 -0.00700216 0.815686
0.138701 0.0289868 -0.0544383 0.713726
0.0769683 0.109161 -0.140405 0.752941
-0.0556752 0.0247037 0.108726 0.72549
0.235978 0.0503312 0.19517 0.682353
0.0118852 -0.138512 -0.0391289 0.854902
-0.224162 0.0431058 -0.2609 0.686275
0.322688 -0.0906817 -0.137806 0.682353
0.3691 0.0163219 -0.320842 0.623529
0.275946 0.0451836 -0.430601 0.615686
0.00513448 0.00145763 0.340141 0.678431
-0.309378 -0.0396148 -0.400334 0.658824
0.10135 -0.123826 0.0829622 0.710784
0.427748 0.0016078 -0.0478712 0.67451
-0.025157 -0.100943 0.191588 0.703922
0.076245 -0.0810694 -0.0781185 0.818627
-0.262595 -0.0415032 -0.0820662 0.713726
0.251626 0.0784048 -0.0854645 0.718627
0.0986881 -0.0921367 -0.233818 0.715931
-0.12343 0.0823199 0.160562 0.701961
0.257069 0.0391392 -0.41694 0.647059
0.0630716 0.0527649 -0.351256 0.686275
0.0555393 -0.0863149 0.0966752 0.760784
0.431731 0.0335406 0.0564385 0.631373
0.182692 -0.0235512 -0.481577 0.639216
0.470986 -0.0564474 -0.0209489 0.609804
0.215593 0.014226 -0.355962 0.648039
0.338147 -0.0318506 -0.0665816 0.690196
-0.467411 0.0214874 -0.14854 0.623529
0.253952 -0.0991714 -0.251233 0.690196
0.205757 -0.0554277 -0.343763 0.643137
0.215685 -0.0041934 -0.0112156 0.704167
-0.0752217 0.0248927 0.0526256 0.837255
0.0952026 -0.0466317 0.470711 0.611765
-0.0208257 0.0246706 0.381143 0.67451
-0.00567201 -0.0187077 -0.155874 0.777451
0.0304458 -0.121222 -0.215471 0.717647
-0.214503 0.0247178 -0.0991836 0.701961
-0.148672 -0.0300577 0.455627 0.654902
-0.184912 0.00428531 -0.0773021 0.713726
-0.0346854 -0.0272261 0.237079 0.682353
-0.0287891 0.0109908 0.420072 0.631373
0.0846232 0.126716 0.0556713 0.772549
0.153129 0.0602619 0.274551 0.67451
-0.0623625 -0.0599985 -0.242284 0.683333
0.283809 -0.0113053 0.245219 0.690196
0.11288 0.107702 0.174328 0.686275
0.14495 0.0376244 -0.202803 0.706863
0.232556 -0.0511428 -0.360028 0.654902
-0.234317 0.0162872 -0.300715 0.67402
0.265722 -0.0303297 -0.374156 0.647059
0.318819 0.0515498 -0.0826233 0.686275
-0.367683 0.0434403 -0.0217125 0.666667
-0.0505292 0.00385912 0.00436505 0.858824
0.431451 0.0117293 0.0629097 0.631373
-0.19409 -0.0966941 0.043392 0.729412
0.011334 0.0251235 0.29623 0.678431
0.258228 -0.0634378 0.214251 0.678431
-0.257464 0.00697182 -0.217356 0.686275
-0.063723 0.0229068 -0.0422416 0.780392
-0.0247033 -0.0440595 0.303097 0.680392
-0.0196687 -0.00683791 -0.410985 0.678431
-0.121474 0.0391202 0.109293 0.721569
-0.187691 -0.0723099 0.220375 0.713726
-0.336166 -0.0545511 0.240162 0.645098
0.400169 -0.058306 -0.168247 0.639216
-0.381732 0.0326368 0.19581 0.670588
0.324375 0.027421 0.196661 0.673529
-0.0278097 -0.0434242 -0.104689 0.835294
0.095744 0.0185281 -0.399242 0.678431
-0.377976 -0.00645146 0.0421749 0.678431
0.31807 0.0101862 -0.211187 0.662745
-0.0985082 -0.0169807 0.254701 0.67451
0.0360123 0.01602 -0.160584 0.737255
-0.224442 -0.0358207 -0.054054 0.764706
0.444831 0.00249234 0.157477 0.619608
-0.165656 0.0196909 0.344602 0.635294
-0.107557 -0.0046614 0.149002 0.686275
0.417696 0.0319779 0.199706 0.665686
0.0590806 0.0921703 0.087918 0.815686
-0.0776296 0.0859969 0.127624 0.698039
-0.152688 -0.0880983 -0.131816 0.756863
-0.610183 -0.00867108 0.0118849 0.792157
-0.309073 -0.0448278 0.13347 0.682353
-0.0875861 0.125962 0.16374 0.713726
-0.142404 -0.0760648 0.114157 0.686275
-0.171843 -0.033822 0.151532 0.698039
0.17436 0.0133957 0.20848 0.697059
0.248095 0.00890047 -0.203702 0.682353
-0.354655 -0.0508015 -0.0187978 0.647059
0.113251 -0.0597391 -0.458299 0.614277
0.000320346 0.0816262 -0.139166 0.811765
0.37524 -0.00873748 0.350048 0.647059
-0.340051 0.00402101 -0.37268 0.643137
0.378588 -0.0920887 -0.171942 0.686275
0.221831 -0.0210256 -0.298391 0.694118
-0.260148 -0.0975696 -0.0523251 0.705882
0.3259 -0.0528918 -0.280481 0.682353
0.286902 -0.00330643 -0.123001 0.690196
-0.195466 0.0647794 0.256717 0.670588
0.0640966 -0.0766513 -0.287502 0.690196
-0.525698 0.0591335 -0.16937 0.622549
-0.206322 0.0510907 0.197046 0.686275
-0.125142 -0.0133938 -0.226901 0.768627
-0.0992256 -0.00158149 -0.250269 0.752941
0.142515 -0.0932 -0.0640854 0.741176
0.0946602 0.00453901 0.0298858 0.838235
-0.475062 -0.0270023 -0.0224417 0.639216
0.19393 -0.0706448 0.298197 0.666667
-0.309908 -0.0536105 -0.107966 0.686275
0.0972087 -0.00148347 -0.119643 0.862745
-0.22912 -0.0829014 0.251785 0.682353
-0.254021 -0.107749 -0.0489614 0.709804
-0.450323 -0.0411184 -0.0246509 0.643137
-0.372687 0.0211976 -0.121747 0.639216
-0.346363 0.0294776 -0.179811 0.639216
-0.0579446 0.0696463 0.192273 0.721569
0.312519 0.0403089 -0.132287 0.686275
-0.31093 -0.0760709 -0.201823 0.694118
-0.385923 0.0570502 -0.393321 0.603922
-0.361253 0.0455813 -0.132254 0.670588
-0.130524 0.0104015 -0.387448 0.658824
0.111024 0.00148693 0.435924 0.639216
-0.0951271 0.0688618 0.325359 0.666667
0.382911 -0.0460556 -0.165054 0.615686
0.338998 -0.0163333 0.37707 0.629779
-0.35621 -0.0371512 -0.203904 0.623529
0.257723 -0.0587209 0.266353 0.643137
0.106966 0.0250409 0.0732383 0.730392
-0.341703 0.0729 0.17361 0.662745
-0.0808197 0.0969807 -0.105112 0.796078
-0.185109 -0.0793603 -0.261456 0.686275
-0.157646 -0.0213891 -0.294414 0.690196
-0.155854 -0.0474175 -0.378726 0.666667
-0.23806 -0.0299079 -0.0125903 0.686275
-0.273099 0.0177124 0.375279 0.6
0.0442409 -0.0565543 -0.0697483 0.810784
-0.272485 0.00603943 -0.0740246 0.67451
-0.370383 -0.0264204 0.227206 0.658824
0.28554 -0.0132066 -0.351425 0.623529
-0.011904 0.0648673 -0.378808 0.686275
0.0833663 -0.0457834 -0.177775 0.8
-0.13784 0.0938183 0.290338 0.67549
-0.016547 0.0169109 -0.363448 0.647059
0.19039 0.0551823 -0.465299 0.619608
-0.127693 -0.0865631 0.31639 0.670588
-0.196506 -0.0254438 -0.277238 0.67451
0.114823 -0.0354458 0.345297 0.678431
0.359338 0.0745069 -0.0595631 0.678431
0.0604265 0.0524426 -0.241372 0.698039
0.122007 0.0380368 -0.371136 0.631373
-0.307189 -0.0345245 0.170828 0.67451
-0.109281 -0.0479986 0.0224599 0.721569
-0.2428 0.0539698 -0.0230113 0.686275
0.117618 0.0108741 0.14514 0.705882
-0.415208 0.0267042 0.0381296 0.666667
-0.21662 -0.0650125 0.0620139 0.678431
0.0439397 -0.0693048 -0.404974 0.680392
0.0736166 0.0392633 -0.349652 0.690196
0.0653303 -0.000698277 -0.108246 0.717647
-0.0976129 0.126201 0.0903658 0.854902
-0.219847 -0.0603997 -0.225354 0.690196
0.327215 -0.0473611 0.277836 0.6
-0.174249 -0.0898569 0.109964 0.686275
-0.125553 -0.0392482 -0.0087467 0.772549
0.00665559 0.101474 0.138901 0.698039
-0.143424 0.0521065 -0.0508954 0.839216
0.276468 0.0488958 0.19731 0.67451
0.0348956 0.0207819 0.415346 0.67451
0.12313 -0.117604 -0.212165 0.721569
0.0735617 0.132119 0.0171757 0.817647
0.344131 -0.0537629 0.376508 0.631373
-0.125018 0.024464 0.205868 0.701961
-0.105124 -0.0285826 0.0674596 0.796078
-0.346542 -0.0760555 -0.0214395 0.678431
0.307158 0.105411 -0.0660876 0.690196
0.347352 -0.079486 -0.187153 0.678431
0.227513 -0.00320315 -0.0867707 0.721569
-0.0963228 0.016169 -0.0214066 0.760784
0.146833 0.0176313 -0.275344 0.682353
0.0240582 -0.109694 -0.0863016 0.834559
-0.161479 0.00511757 0.181197 0.698039
0.186166 0.0486007 -0.477981 0.6
0.366684 0.0271821 0.33222 0.627451
0.269247 -0.0432772 -0.0709317 0.680882
-0.121985 0.130982 0.105378 0.741176
-0.0992749 0.0631011 0.238954 0.678431
-0.266876 0.0499832 0.0784481 0.67451
0.127552 -0.0212772 0.393564 0.671569
-0.162328 -0.0741137 0.0123721 0.72549
0.0379438 -0.0330577 -0.526333 0.639216
-0.133343 -0.0907404 0.163822 0.738235
-0.338637 -0.00606946 0.11051 0.635294
-0.133333 0.0958569 -0.080093 0.729412
0.0790079 0.0273949 0.359984 0.686275
0.00920192 -0.0705231 0.111514 0.735294
0.400609 0.0522811 0.0725028 0.619608
0.0148144 0.063972 -0.0870038 0.858824
0.265473 -0.0667217 -0.400297 0.67549
-0.439008 0.0340518 -0.00298262 0.643137
0.012429 -0.0710623 -0.330609 0.682353
0.0527 -0.00280005 -0.516693 0.639216
0.343497 0.00900405 -0.238202 0.666667
0.133201 0.0410161 0.132232 0.698039
-0.186827 0.0145041 0.309375 0.648162
0.0490629 0.063633 0.175804 0.715686
-0.143505 -0.0517726 0.335191 0.607843
0.0390677 -0.0450668 -0.0823705 0.843137
0.117471 -0.0522407 0.0965667 0.701961
-0.17815 -0.0143388 -0.394293 0.658824
0.0655623 -0.0368529 -0.118778 0.796078
0.105409 -0.0152738 0.464382 0.635784
-0.00344624 0.0496598 -0.287655 0.717647
0.247201 -0.022815 0.241563 0.678431
0.0103315 -0.0523327 0.390869 0.680392
0.283611 -0.0900833 -0.0248094 0.701961
-0.0113945 0.0980427 -0.157811 0.705882
-0.235957 0.101613 0.156718 0.713726
0.0229454 -0.0391999 0.285686 0.694118
-0.27333 -0.0158727 -0.0171727 0.678431
-0.178354 0.111019 -0.117112 0.788235
-0.25407 -0.0447535 0.0424335 0.716667
0.14811 0.0177468 0.231031 0.690196
0.115542 -0.0489061 -0.491541 0.631373
-0.297554 0.0318215 0.130296 0.662745
0.402473 -0.056194 -0.1413 0.642647
0.0101631 -0.00859644 0.164497 0.704902
-0.323569 -0.0214015 -0.255152 0.639216
0.146024 -0.0516489 -0.10522 0.72549
-0.268734 0.0976058 -0.231639 0.698039
-0.0697993 0.0548912 -0.228461 0.685539
-0.136331 -0.051282 0.262589 0.666667
0.0171933 -0.0581319 -0.304492 0.698039
-0.438093 -0.00791054 0.0318569 0.65098
0.267992 0.0478083 0.174549 0.686275
-0.133728 0.0400604 0.340962 0.623529
0.248769 0.083175 0.0879079 0.686275
0.211397 0.0337916 -0.0185008 0.72549
0.46578 -0.0597239 -0.0250768 0.629412
-0.0509457 0.0314773 0.12065 0.756863
-0.40447 -0.017116 -0.341084 0.639216
0.297611 -0.0280248 0.129881 0.682353
-0.173517 -0.0488624 0.247678 0.682353
0.0248445 0.106124 0.351294 0.690196
-0.261067 -0.00758339 0.231444 0.67451
-0.305237 0.0219529 0.32964 0.660784
-0.15205 -0.105319 -0.249918 0.694118
-0.273362 0.00272749 0.400716 0.607843
0.0868367 0.0298515 -0.444769 0.614216
0.56814 -0.0452868 -0.123752 0.603922
0.0899822 -0.0967999 -0.204546 0.737255
-0.245118 0.0455459 0.0947406 0.686275
0.143857 0.0700365 0.265559 0.696078
0.337578 0.0456835 0.174078 0.67451
0.271438 0.0228593 -0.119961 0.701961
-0.401391 -0.0536056 -0.278473 0.666667
0.12761 0.0258344 0.0616617 0.74902
0.0978009 -0.0178641 -0.459764 0.666667
-0.318586 -0.0591535 0.0220437 0.682353
-0.250749 0.0419556 0.112489 0.698039
-0.00181448 -0.0991985 0.0710124 0.823529
0.143725 0.0670792 -0.245102 0.698039
-0.218479 0.12522 -0.182145 0.721569
0.309262 0.0691311 -0.295148 0.657843
-0.199918 0.129386 0.102991 0.721569
-0.0576525 -0.0352364 -0.191382 0.701961
-0.224866 -0.0616251 -0.0353015 0.695098
-0.0386532 0.0820192 0.402663 0.654902
-0.441687 0.0467624 0.0384294 0.67451
0.117765 0.127997 0.0242814 0.780392
-0.0289549 0.110951 0.083984 0.803922
0.402388 0.0352608 0.090584 0.603922
-0.324968 -0.0027336 -0.0966313 0.654902
0.184231 -0.052443 -0.227052 0.690196
0.262345 0.0321601 0.164403 0.678431
0.204999 0.0287099 0.331684 0.639216
-0.475577 0.0212194 -0.0757961 0.65098
-0.0722241 -0.00774002 -0.240081 0.733333
-0.325307 -0.0477931 0.00187811 0.682353
-0.185962 -0.0324678 -0.265704 0.678431
-0.277244 -0.0257865 0.208531 0.659804
0.281928 -0.0314178 0.289222 0.658824
-0.159331 -0.0373982 0.00615071 0.8
-0.154237 -0.0104977 0.326357 0.676471
-0.185025 -0.0238284 0.381851 0.64902
0.067029 -0.040296 0.0226708 0.758824
0.0101421 -0.0866909 0.262456 0.67451
0.175179 -0.0626022 0.262672 0.690196
0.190678 0.10537 0.0685485 0.701961
0.181037 0.0914886 0.16238 0.690196
-0.128036 0.0167078 -0.394721 0.666667
-0.0243405 -0.0762757 0.354786 0.679412
-0.388189 -0.0200558 0.0321294 0.643137
0.306555 -0.0251188 -0.0672326 0.690196
0.259994 -0.0251951 -0.348753 0.686275
-0.273286 0.0090753 0.234298 0.635294
0.399773 0.0175811 -0.0961766 0.654902
-0.162939 0.0344671 0.235843 0.678431
-0.0162035 -0.091839 -0.290888 0.698039
-0.435906 0.0549055 -0.0881284 0.664706
0.338138 -0.022714 0.114841 0.682353
-0.206146 -0.0202095 -0.240273 0.670588
0.115788 0.132199 0.0603944 0.72549
0.155739 -0.0809957 0.340375 0.658824
-0.0490832 -0.0612388 0.441762 0.623529
-0.0122372 -0.00157969 0.356841 0.67451
0.13777 -0.00550799 0.00825423 0.698039
0.320549 0.0258709 -0.337527 0.666667
-0.039597 0.0480747 0.0905438 0.737255
-0.0608872 0.0330196 0.316357 0.686275
-0.238617 -0.0173594 -0.33694 0.632353
0.201245 -0.0377433 -0.53653 0.607843
0.224698 -0.0223732 -0.19204 0.686275
-0.0746135 -0.0320395 -0.275536 0.686275
-0.176099 -0.0786568 -0.0270692 0.698039
0.249525 -0.026758 -0.250699 0.686275
0.233057 0.052632 0.0961696 0.694118
-0.339603 -0.0373654 -0.115584 0.692892
0.253525 0.0877151 0.0317113 0.686275
0.0417406 -0.0514108 -0.453092 0.662745
-0.427807 0.0624626 -0.160411 0.654902
0.287948 0.00840621 0.076077 0.686275
0.0765767 0.0257203 -0.385554 0.686275
-0.187844 -0.0725752 0.377253 0.643137
-0.147666 0.0647222 0.132214 0.734252
-0.0965832 0.0113333 -0.289329 0.686275
-0.143854 0.136247 0.0682509 0.772549
0.134871 -0.11841 0.0475562 0.699265
-0.198819 -0.0360913 -0.162171 0.720473
0.378675 0.0169076 0.107566 0.67451
0.00983454 0.0624275 -0.310302 0.686275
-0.0533734 -0.030814 0.0220107 0.818627
-0.270165 0.0578055 -0.247829 0.678431
0.432595 0.0162493 -0.0302342 0.659804
-0.220509 0.0996051 -0.0712739 0.760784
0.407383 0.0399991 0.15242 0.654902
-0.277585 0.0222095 -0.250449 0.670588
0.142972 0.0921182 -0.125233 0.784314
0.176486 -0.0276455 -0.386799 0.686275
-0.0683383 0.0198257 -0.172945 0.705882
0.419953 -0.0220792 -0.36029 0.623529
0.142845 0.0475182 0.346347 0.663725
-0.0424676 0.00295236 0.202531 0.705882
0.267603 -0.065897 -0.0455381 0.698039
0.217627 0.0676569 0.317933 0.682353
-0.142049 -0.115633 -0.052278 0.733333
-0.0526038 -0.106741 0.175252 0.701961
0.311048 0.0264883 0.151545 0.694118
-0.0137767 0.0819342 0.318897 0.682353
0.137783 -0.0423882 -0.285198 0.678431
0.334095 0.0513946 0.293337 0.639216
-0.0524535 -0.0210024 -0.455783 0.681373
0.202346 -0.015837 -0.384182 0.682353
-0.287639 0.00187325 0.15193 0.686275
-0.4137 -0.044731 0.198772 0.65098
-0.231393 -0.0882955 0.145303 0.698039
-0.350163 -0.0730055 0.351873 0.635294
0.482638 -0.00460661 -0.0620342 0.658824
0.0110837 -0.0876854 -0.177333 0.698039
0.317297 -0.000235024 -0.12891 0.688725
-0.477038 -0.0048635 -0.227371 0.647059
0.257076 -0.0659795 -0.270477 0.681373
-0.457033 -0.0356122 0.109146 0.666667
-0.231617 0.0454424 -0.0602754 0.686275
0.184689 0.0184911 -0.144948 0.686275
-0.347825 0.00776854 -0.184167 0.67451
-0.0726026 -0.0859431 0.111573 0.815686
0.280817 0.0444769 0.0742269 0.686275
0.19811 0.0939033 -0.0330082 0.753922
0.00816113 0.0955949 -0.299514 0.713726
0.265657 0.095666 0.211742 0.686275
0.295566 -0.0443682 -0.259249 0.678431
-0.290349 0.102181 0.110526 0.686275
-0.220029 0.0137867 -0.328804 0.615686
-0.158961 -0.0163504 -0.0662463 0.764706
0.21303 0.0108131 0.0988478 0.713726
-0.391938 -0.0687805 -0.0513673 0.676471
-0.0937155 0.026334 -0.37001 0.662745
-0.145018 0.0423988 -0.349464 0.666667
-0.157912 -0.0112035 0.0861602 0.698039
0.396949 -0.0160775 -0.0348527 0.635294
-0.128054 -0.0159906 0.472793 0.643137
0.277386 0.0168655 -0.021841 0.690196
-0.0726911 -0.00975314 -0.433862 0.631373
0.162994 0.121507 0.0115289 0.721569
-0.12908 0.0652753 -0.0602518 0.796078
-0.168219 -0.0178618 -0.00783466 0.713726
0.288863 -0.0930563 0.100846 0.686275
0.214757 0.0461152 0.290308 0.603922
-0.36062 0.0601617 0.0512746 0.627451
-0.0927809 -0.0129382 -0.331162 0.67451
-0.381544 -0.0185759 -0.206084 0.673529
-0.0309209 0.000544367 0.397027 0.656863
0.112588 0.122949 -0.0942392 0.721569
0.0489169 -0.0171243 -0.456506 0.603922
-0.279517 0.0641729 0.261331 0.67451
-0.273833 0.0209439 0.0495483 0.67451
-0.447968 -0.0280717 0.151732 0.635294
0.0337232 -0.0301881 -0.181661 0.733333
-0.367019 0.0358156 0.0149205 0.682353
0.414045 0.0359814 0.188232 0.615686
-0.27167 0.0673504 -0.0160877 0.713726
0.115672 0.0770074 -0.213862 0.736274
0.128935 0.0681633 -0.350067 0.67451
-0.349603 0.0250042 -0.240906 0.666667
-0.222231 -0.00309391 -0.00351998 0.760784
0.259145 -0.0372742 -0.391899 0.615686
-0.144885 0.110091 -0.191622 0.709804
0.42793 0.00883831 -0.222883 0.639216
-0.0969403 -0.105833 -0.141664 0.862745
0.146591 0.0192046 -0.0394479 0.721569
0.362701 0.037867 0.253691 0.682353
-0.339508 -0.0594981 0.0304321 0.64951
-0.109534 -0.0148088 0.371842 0.658824
-0.184981 -0.0482034 -0.244041 0.670588
-0.27114 0.0454156 0.195758 0.671324
-0.159015 -0.0654204 0.453829 0.610784
-0.418881 -0.0586571 -0.144045 0.662745
0.373664 0.00164994 0.0376679 0.666667
-0.101032 0.0423793 0.0685312 0.713726
-0.236012 -0.11937 -0.0590872 0.709804
0.48823 -0.0565841 0.12321 0.619608
-0.266377 0.0484823 -0.476789 0.631373
0.0735082 -0.0252483 0.00514906 0.866667
0.485679 -0.0434039 0.0266897 0.615686
0.339579 0.0660563 0.179302 0.654902
0.0470445 0.129255 -0.198479 0.745098
0.385013 0.0751506 -0.0592435 0.686275
-0.222503 -0.0533081 0.234373 0.678431
0.0215317 0.0923079 -0.315141 0.690196
-0.315216 0.00374948 -0.338097 0.677451
0.32037 0.0360705 -0.080076 0.682353
-0.399576 0.00451116 0.317016 0.65098
0.309305 0.0222601 0.208476 0.654902
0.0971797 -0.0817253 -0.182523 0.780392
-0.289624 -0.0409828 0.283497 0.666667
-0.0545358 0.0948452 0.321997 0.682353
0.0731276 0.040083 0.0503709 0.737255
-0.454451 -0.00967227 -0.297828 0.619608
-0.208517 0.104982 -0.0623923 0.745098
0.505742 -0.0492945 0.00748509 0.662745
0.126227 0.0427465 -0.175818 0.776471
0.00782122 -0.0012307 -0.337697 0.686275
-0.0223147 0.136784 -0.180214 0.792157
-0.220869 -0.0134589 -0.352739 0.67451
0.0847373 0.0548238 -0.369857 0.6375
-0.160332 0.0794657 -0.207221 0.685294
-0.0993547 0.0311568 0.238835 0.67451
0.411519 -0.0928561 -0.0202081 0.682353
0.316513 0.0747566 0.102296 0.678431
0.0721309 0.0622849 0.485575 0.634314
-0.0500397 -0.0445071 -0.297579 0.698039
-0.12705 -0.111986 0.0204402 0.858824
-0.111617 0.0148185 0.212471 0.72549
-0.0219755 0.0367093 -0.423128 0.639216
0.529898 0.0161588 0.0587505 0.627451
0.38739 0.0189695 0.282977 0.667647
0.218876 -0.084301 0.154858 0.682353
-0.405882 -0.000558848 -0.203129 0.647059
0.273475 -0.0134649 -0.220304 0.686275
-0.327668 -0.0120196 0.272275 0.615686
0.400147 -0.000688421 0.134631 0.654902
-0.0780935 0.0617218 -0.277021 0.709804
-0.22186 -0.0502796 -0.361647 0.604044
0.0792281 -0.0521343 0.00559993 0.862745
0.182313 -0.0674846 -0.0780265 0.698039
0.300987 -0.0193175 0.304795 0.611765
0.366155 0.0345634 0.0364042 0.682843
0.112908 0.0498955 -0.229732 0.682353
0.213026 -0.0641827 0.371658 0.643137
0.149369 0.0767134 -0.135769 0.745098
0.100211 -0.0155519 0.313463 0.670588
0.202301 0.0306513 -0.122346 0.698039
-0.219627 0.11972 0.0977923 0.72549
-0.137865 0.054174 0.266336 0.686275
-0.279281 -0.0357444 -0.342202 0.67451
0.244488 -0.0170847 -0.280507 0.678431
-0.020807 0.0523367 -0.295646 0.717647
-0.517074 0.0142727 0.153301 0.611765
0.151735 0.0752743 0.355127 0.686275
-0.485276 -0.0316296 -0.119579 0.64902
0.276759 0.023192 0.00492639 0.713726
0.270821 0.0144726 -0.423854 0.631373
-0.140549 0.00800755 0.277081 0.670588
-0.123107 -0.096679 -0.0919436 0.698039
0.189926 -0.100096 0.163423 0.686029
-0.0612675 -0.0209931 -0.318863 0.698039
0.316372 -0.024325 -0.0361924 0.678431
0.122751 -0.0580905 -0.400449 0.631373
0.118178 0.026045 -0.370891 0.670588
0.0124891 -0.0842963 0.305254 0.686765
-0.315932 0.0679529 -0.218809 0.682353
-0.0749019 -0.108448 0.0229167 0.792157
-0.185981 -0.00194238 0.247469 0.677206
-0.295524 0.00944975 0.178619 0.670588
0.128672 0.0624833 0.300183 0.666667
0.0104113 0.0813616 0.0687417 0.792157
0.0574736 -0.0822956 0.300265 0.682353
-0.0635818 -0.0867955 0.383217 0.660539
0.00666575 0.00743329 0.0711659 0.811765
-0.243206 -0.0399243 -0.16512 0.686275
-0.414701 -0.0396841 0.127771 0.615686
-0.421903 -0.0640004 -0.1908 0.662745
-0.138105 0.00162298 -0.448347 0.678431
0.38678 -0.00449003 0.266749 0.654902
-0.264787 -0.0660056 0.113455 0.67451
0.0168902 0.0996206 -0.0703921 0.796078
0.252351 -0.00735664 -0.0180996 0.690196
-0.102187 -0.0459789 -0.174451 0.701961
0.355667 0.0838927 0.238772 0.670588
0.357743 -0.0447424 -0.309186 0.678431
0.0472467 -0.0817736 -0.319446 0.686275
0.302467 0.0708979 -0.148462 0.690196
-0.363534 0.0211648 -0.0393257 0.643137
0.112607 -0.0616777 0.117883 0.733333
0.0557539 0.0768798 -0.0577035 0.760784
-0.269286 -0.0492135 -0.0159207 0.698039
0.0666618 -0.0137547 0.302932 0.686275
0.298133 -0.00909094 -0.0930726 0.686275
0.17082 0.0750699 0.0280893 0.737255
-0.00566778 0.0440354 0.275778 0.698039
0.0483674 -0.028015 0.479656 0.611765
-0.34023 0.0922109 0.199162 0.678431
0.394588 0.0665367 0.0928162 0.666667
0.351755 0.00411524 -0.0796361 0.678431
-0.325171 0.0678995 0.122493 0.65098
0.25021 -0.0932424 0.137682 0.689216
-0.200555 -0.0113208 0.2511 0.651961
0.124262 -0.0226038 0.0195679 0.847059
0.122885 -0.084109 0.225838 0.690196
-0.255992 -0.113604 -0.00690994 0.721569
0.157615 0.0461291 -0.0682829 0.698039
-0.0875905 -0.115461 -0.0231376 0.72549
-0.128295 0.067099 0.0883879 0.714706
0.0730019 -0.00582606 0.0594607 0.75098
0.217552 0.0342119 -0.375169 0.619608
0.194723 0.100993 0.129885 0.690196
-0.308632 -0.0967143 0.175883 0.678431
0.0595617 -0.12055 0.130013 0.705882
-0.441917 0.00429805 -0.0219214 0.654902
0.170546 -0.0349985 0.121119 0.694118
-0.0758285 0.0193019 -0.364901 0.679167
0.0103861 -0.0203932 -0.409729 0.682353
-0.371508 0.0461859 0.110681 0.65098
0.493772 -0.0238485 -0.0857991 0.603922
-0.133885 0.0181059 -0.316216 0.643137
0.0835849 0.0955543 0.045384 0.704902
0.24197 -0.023869 -0.236827 0.686275
-0.0841372 -0.118967 0.10758 0.756863
-0.413307 0.019351 -0.264794 0.631373
-0.205731 0.0814393 -0.205766 0.698039
0.0854179 0.00737234 0.294771 0.670588
0.4002 -0.0141241 0.274982 0.647059
-0.0536943 -0.0629852 0.354147 0.678431
0.14418 0.119618 0.136991 0.700674
-0.463773 -0.0225921 -0.0028763 0.635294
-0.268878 0.0120423 0.320967 0.643873
0.173444 -0.0124869 -0.155046 0.690196
-0.0805143 -0.0993216 -0.0179017 0.772549
-0.245435 0.0590646 0.107429 0.686275
0.35297 -0.0585997 -0.293224 0.666667
0.345867 -0.033927 0.179495 0.65098
0.25066 -0.0793578 -0.283973 0.690196
0.242935 0.109774 -0.040499 0.698039
0.28801 0.0451625 0.174592 0.687255
0.130268 -0.0657368 -0.277015 0.690196
0.17996 0.0480002 -0.234444 0.686275
0.0742403 -0.016384 0.147121 0.691176
0.100265 -0.0403936 -0.275452 0.698039
-0.107091 -0.0655183 0.285362 0.683578
0.4986 0.00664776 0.116604 0.648039
-0.38495 0.0119191 -0.0400825 0.67451
0.100541 -0.125029 0.19014 0.698039
-0.246426 -0.0791417 0.151045 0.686275
0.286964 -0.064261 -0.209288 0.690196
-0.196076 0.0194995 0.311068 0.666667
0.168984 -0.0877176 0.28717 0.685294
0.221063 -0.0130296 0.0535248 0.702696
0.139406 0.0253345 -0.524788 0.627451
-0.289768 0.00860806 0.251401 0.647059
0.466377 0.0109961 -0.104355 0.654902
-0.44993 -0.0143654 0.0147907 0.654902
0.511119 -0.0121166 0.0902993 0.614706
0.322171 0.0875424 0.0372227 0.686275
0.0342121 0.0126958 0.0749214 0.796078
-0.0600699 -0.0416049 0.203906 0.749265
-0.0977371 0.0648291 0.254171 0.686275
-0.0517491 -0.00710807 0.174164 0.741176
0.242657 0.0211226 -0.195939 0.682353
-0.0517032 0.0399229 0.315433 0.684314
-0.503119 -0.0565043 0.104562 0.615686
-0.362076 -0.0158371 0.0287394 0.623529
0.00923018 0.00629438 0.161538 0.715686
-0.153798 -0.0218032 0.170805 0.776471
0.215307 -0.0248356 -0.110443 0.741176
-0.0599002 0.0919403 -0.11962 0.721569
-0.344912 0.0215952 0.118348 0.647059
-0.0114684 -0.112321 0.0527033 0.870588
-0.0911428 -0.058601 0.144598 0.72549
0.496207 0.048493 -0.00141165 0.627451
-0.0959558 0.0983325 0.0819101 0.733333
0.0247956 -0.0129175 0.226964 0.701961
0.294236 -0.0728774 -0.238477 0.670588
-0.0369119 -0.116951 -0.072198 0.796078
-0.163701 -0.0288877 -0.367369 0.686275
0.278916 -0.0667425 -0.379262 0.682353
0.204012 0.0128693 -0.4438 0.60049
-0.236276 -0.0528804 0.133472 0.67451
-0.214167 0.0451775 -0.0892015 0.72451
0.303462 0.0835214 0.320195 0.677451
0.446975 -0.0432732 -0.0429293 0.658824
-0.116257 0.0234586 0.126482 0.686275
0.0799451 -0.0584056 -0.291933 0.690196
-0.004131 -0.0424149 0.356741 0.631373
0.173207 0.0742338 0.244556 0.686275
0.134892 0.0923073 0.279055 0.686275
0.0327195 0.0539356 -0.269554 0.698039
-0.0885167 -0.0754156 0.271696 0.690196
0.0277753 -0.0463346 -0.391216 0.65098
-0.23023 -0.0716883 0.205311 0.682353
0.235528 -0.0554099 -0.398324 0.670588
-0.314757 -0.0684873 -0.27131 0.65098
0.529756 -0.0283294 -0.111591 0.645098
0.0355394 -0.145871 -0.0997682 0.864706
0.118164 -0.0437086 -0.359071 0.635294
-0.310142 -0.108873 -0.0792687 0.701961
0.0658551 0.00752285 -0.44871 0.67451
-0.133987 0.0221262 0.240426 0.666667
0.367051 0.0333604 0.106551 0.670588
-0.268392 -0.0197015 0.403355 0.643137
0.273318 -0.0641073 -0.460709 0.654902
0.0355836 0.0532556 0.483108 0.612745
0.376303 -0.0451963 -0.268994 0.627451
-0.0612765 -0.00321657 0.135924 0.690196
0.0956208 0.0642259 0.470106 0.631373
-0.288391 0.0371005 0.0878531 0.686275
0.290521 0.108521 0.00152236 0.692953
-0.35973 -0.0755752 0.124528 0.662745
-0.224015 -0.0649211 0.132279 0.690196
0.0116275 0.0195966 -0.389653 0.678431
0.38343 -0.0706142 0.25034 0.647059
-0.00586932 0.115599 -0.097371 0.754902
-0.0722487 -0.070702 0.411261 0.682353
0.141229 -0.109958 -0.0194387 0.717647
-0.225042 0.049637 -0.494528 0.639216
-0.4127 -0.018434 -0.096933 0.669608
-0.398736 0.0545973 -0.104784 0.666667
-0.124023 0.0583617 -0.36392 0.635294
0.314028 0.0473562 0.129475 0.686275
-0.0881462 0.0887764 0.0657124 0.737255
0.0835543 -0.0744769 -0.0261648 0.716667
-0.231996 0.00960459 -0.345519 0.678431
-0.00720189 -0.00129748 0.470661 0.639216
-0.217528 -0.0549866 0.11733 0.713726
-0.0581149 -0.101464 -0.146989 0.705882
0.413534 -0.0350262 0.190078 0.654902
0.230453 0.0749289 -0.263829 0.690196
-0.382525 0.0624067 -0.227487 0.639216
-0.158024 -0.0341235 -0.172465 0.698039
-0.350212 -0.045521 -0.344218 0.662745
-0.0386363 0.0301987 -0.248109 0.745098
-0.119045 -0.0711167 0.245808 0.686275
0.0516171 -0.0932278 0.122558 0.733333
0.368754 -0.0721526 -0.328632 0.662745
0.4695 0.0121424 -0.243349 0.622549
-0.00279128 0.0217947 0.0759951 0.847059
-0.442463 0.0380445 0.128152 0.666667
-0.0487814 0.0880832 -0.182212 0.723529
-0.202548 0.0303448 0.0834065 0.690196
0.495043 -0.0334376 0.0383573 0.635294
-0.158183 -0.111356 0.0066758 0.752941
0.472797 0.0285041 -0.173569 0.643137
-0.270897 -0.0872931 -0.218246 0.682353
0.0955537 0.0284673 -0.322819 0.678431
0.120653 -0.072621 -0.223762 0.690196
-0.355009 -0.0296788 -0.268388 0.654902
0.39415 -0.0646367 -0.0299891 0.666667
-0.0400167 0.112762 0.181826 0.690196
0.0871961 0.0748015 0.0839189 0.808824
0.247992 -0.0201218 0.397328 0.614951
-0.345102 0.0549005 0.153726 0.62549
-0.264498 -0.0419163 0.382682 0.647059
0.453518 0.0102758 0.00100718 0.615686
-0.199016 -0.0513195 -0.234502 0.682353
0.0571501 -0.0809263 0.0131346 0.756863
0.272403 -0.0143506 -0.179148 0.686275
0.144224 0.0627837 -0.0501556 0.717647
-0.198046 0.0906921 -0.243311 0.694118
-0.0133285 -0.0282156 -0.345578 0.678431
0.400084 0.0229725 -0.134971 0.678431
0.302859 0.0914779 -0.149231 0.697059
0.118779 -0.0579425 -0.302389 0.698039
-0.230657 -0.0444703 0.129689 0.682353
0.145521 0.064566 0.147899 0.698039
0.129345 -0.0200491 0.317994 0.635294
-0.0165244 -0.0108232 -0.466358 0.623529
-0.0222432 0.0624878 -0.328607 0.698039
0.115146 -0.0142058 0.274407 0.698039
0.0410032 0.0632474 0.0857697 0.807843
0.0917874 0.106902 0.204897 0.689093
0.392105 0.0567466 0.0199638 0.666667
-0.000238256 -0.059407 -0.425178 0.623529
0.115723 -0.0867365 -0.0153562 0.755882
-0.0772574 0.00205738 -0.39505 0.639216
0.255797 0.0427114 -0.412269 0.654902
-0.257407 -0.00156731 0.214457 0.678431
-0.135737 -0.104013 0.197589 0.686275
-0.0427371 0.103177 0.0733296 0.756863
0.25751 -0.0543957 0.305217 0.654902
0.41585 0.0481547 -0.011996 0.65098
-0.0896494 0.0331726 -0.337198 0.643137
-0.426153 -0.053873 -0.127774 0.611765
0.0657859 -0.0326866 0.129216 0.741176
-0.144744 -0.0687523 -0.109574 0.733333
0.272934 0.0917228 -0.348848 0.686275
-0.241817 0.0465626 -0.349491 0.652941
0.318138 0.00219696 -0.35746 0.635294
0.145352 0.046644 0.0696979 0.694118
0.426138 0.0690161 0.116395 0.67451
0.378675 0.0203855 -0.15951 0.682353
0.178145 0.052815 0.0249614 0.717647
0.229236 -0.0761112 0.203225 0.686275
-0.402787 -0.0180741 -0.133423 0.652834
0.320208 0.100109 0.0291282 0.698039
0.238721 0.000977083 -0.098517 0.709804
0.034118 0.0572045 -0.375394 0.685049
0.226164 0.0180967 0.0979871 0.708824
0.444983 0.0702017 0.224672 0.668627
0.309096 0.0815959 0.0304402 0.678431
-0.018155 0.0349435 0.0298792 0.784314
0.340458 -0.0889788 -0.0128766 0.686275
0.167877 -0.00850314 0.122847 0.776471
-0.154097 0.107047 -0.0658429 0.701961
0.127418 0.0469352 -0.396481 0.686275
-0.239473 0.0238961 0.218247 0.683333
0.0518302 0.0770299 -0.185753 0.690196
0.473269 -0.0472232 0.0808187 0.65098
-0.395951 -0.0274008 -0.211211 0.659804
-0.0864465 -0.111779 0.0289127 0.866667
-0.000887801 0.0927843 0.155551 0.690196
-0.181729 -0.00665963 -0.322616 0.666667
0.301731 -0.00152617 0.259804 0.666667
-0.00705658 -0.122154 -0.0558509 0.811765
-0.0120709 0.0692902 0.0112481 0.854902
0.39387 -0.0719767 -0.27732 0.658824
-0.0951053 0.0578517 -0.360755 0.690196
0.103473 0.00419893 0.114624 0.719608
0.199746 -0.0684265 0.0185513 0.69902
0.0516748 -0.0711743 0.283679 0.664706
0.419771 -0.0316437 -0.081909 0.666667
0.297276 0.0796594 0.0597213 0.698039
0.00630552 0.0370606 0.10549 0.819608
-0.205843 -0.0667804 -0.359793 0.652206
-0.273789 -0.0436357 -0.204727 0.682353
0.277553 0.0609651 0.0814067 0.690196
0.342754 0.037528 -0.120566 0.65098
-0.00242512 0.00316327 0.0905905 0.745098
0.380636 0.0382843 -0.334678 0.658824
0.0016817 -0.0105897 0.338104 0.678431
-0.170659 0.050193 0.355593 0.635294
0.394381 -0.0282492 0.174282 0.665196
0.102979 0.0803445 -0.0582411 0.810294
0.263647 -0.0814085 0.124167 0.678431
0.37189 -0.0349843 -0.184266 0.647059
0.0227377 -0.06077 0.106259 0.709804
0.0368041 0.076891 -0.318926 0.690196
0.4791 0.0276272 0.0947943 0.651961
-0.126207 -0.112929 -0.083645 0.712745
0.127361 -0.0248427 0.171014 0.729412
-0.0382966 -0.0197745 -0.513509 0.646078
0.494444 -0.0524257 -0.0564965 0.611765
0.175588 -0.025766 -0.266243 0.676471
-0.0650261 0.051672 -0.330359 0.666667
0.381496 -0.0172522 0.0217905 0.682353
0.336683 0.0130548 -0.189422 0.662745
0.506092 0.0613427 0.0693928 0.643137
-0.29222 0.00837489 -0.107332 0.661765
0.352169 -0.0637825 -0.163563 0.690196
-0.130596 0.0346982 -0.239253 0.686275
0.13417 0.111434 -0.0961225 0.701961
-0.21056 -0.0500485 0.189403 0.72549
0.459157 -0.0173484 0.151229 0.644118
-0.0980001 -0.0113042 -0.515048 0.635294
0.133914 -0.00392757 -0.184528 0.698039
0.206352 0.0223664 0.0214631 0.694118
0.303546 0.0023314 0.193738 0.686275
0.216483 -0.0497076 -0.349865 0.686275
-0.149571 -0.0279993 0.336949 0.635294
0.272748 0.0990839 0.207384 0.686275
0.398568 0.012295 0.00184767 0.678431
-0.0835412 0.0619757 -0.101571 0.731373
-0.523329 0.0369101 0.135423 0.635294
-0.27433 -0.0276618 0.270752 0.67451
0.254682 0.0296226 0.073416 0.686275
0.125394 0.0835209 -0.158567 0.745098
-0.146492 -0.0337004 0.28545 0.686275
-0.426927 -0.0618576 -0.021581 0.662745
-0.198643 0.0577323 -0.311907 0.670588
0.202208 -0.0316943 -0.384767 0.666667
0.416541 0.0653605 0.126013 0.635294
0.268437 0.0932468 0.0573232 0.686275
-0.168275 -0.0699794 0.411543 0.643137
-0.094212 0.112753 0.0377218 0.796078
-0.411377 -0.0547431 -0.329994 0.65098
0.0928083 -0.0076525 0.342144 0.615686
-0.239918 0.00606608 -0.135415 0.709804
-0.14791 -0.0370284 -0.0337848 0.74902
0.380931 -0.0725805 0.0413127 0.686275
-0.269877 0.0331951 -0.110818 0.703922
0.263093 0.0163575 -0.326704 0.682353
-0.152695 -0.0245052 0.149877 0.689216
-0.342359 0.0918182 -0.180445 0.686275
0.135217 0.0323211 0.0392075 0.782108
0.245348 -0.0157216 0.434887 0.628431
0.244256 -0.0503559 0.379978 0.615686
0.218642 -0.0354651 0.174838 0.666667
0.0790564 0.0247158 0.032851 0.819608
0.0618732 -0.00383473 0.307339 0.686275
-0.211036 -0.0249755 -0.483929 0.627451
0.0423162 0.0931532 0.045483 0.811765
0.375792 -0.000470636 0.0041237 0.662745
-0.196486 0.0516312 -0.274408 0.67451
-0.172594 0.053518 -0.256361 0.694118
-0.187502 0.0585572 -0.24306 0.682353
0.300455 -0.010639 0.120866 0.685294
0.158516 -0.109375 -0.128293 0.719608
0.0874835 0.000626829 0.215725 0.694118
-0.286152 0.0305432 0.329812 0.670588
0.212078 0.0217316 -0.180401 0.690196
0.358653 0.000586739 -0.269231 0.654902
-0.0503449 0.00303851 0.347533 0.615686
-0.0604342 -0.0385369 0.324038 0.662745
0.0660722 0.0670868 0.128654 0.698039
0.186932 -0.047406 0.0379385 0.701961
0.425487 -0.00429602 0.0488261 0.611765
0.272802 0.0558763 0.326569 0.682353
-0.36091 -0.0469469 -0.150988 0.654902
-0.338685 0.0846093 0.247652 0.666667
-0.230151 -0.0830477 -0.280476 0.682353
-0.126666 -0.00718368 -0.493188 0.615686
-0.143686 0.044339 -0.34717 0.684314
-0.286796 -0.0109415 -0.344866 0.65098
-0.201056 -0.0456281 0.166217 0.682353
-0.0163994 -0.051802 -0.185935 0.821569
-0.0773094 -0.047298 0.277404 0.701961
0.234258 0.0405823 0.137018 0.678431
-0.135885 -0.0478463 0.242806 0.67451
0.442177 -0.0354391 -0.0177002 0.645098
0.187853 -0.0237614 0.0217598 0.705882
-0.226604 -0.00701087 -0.364451 0.662745
0.00903485 0.0122471 -0.211116 0.792157
-0.194859 0.00622843 -0.200878 0.681373
-0.481397 0.0423837 -0.00179912 0.623529
0.340164 -0.074374 0.0541276 0.671569
-0.216906 -0.00434571 0.33345 0.615686
0.109293 -0.0308382 0.186211 0.686275
0.293695 -0.00165823 0.14454 0.678431
-0.677931 0.0314535 0.126002 0.737255
0.0967138 0.0251287 0.188192 0.686275
-0.0330992 0.0193882 0.0116859 0.862745
-0.166325 0.0362283 0.227748 0.678431
0.259841 -0.0338352 0.365039 0.615686
0.0930485 -0.116339 0.0310992 0.72549
0.221523 0.0442304 -0.174042 0.698039
-0.0188974 -0.0647572 -0.265409 0.690196
0.220464 -0.0131823 0.399655 0.635294
-0.42846 0.0272158 -0.0520012 0.615686
0.0311497 -0.0701919 0.119646 0.737255
0.20926 -0.0442708 0.366352 0.682353
0.240453 0.0697673 0.0413843 0.686275
0.158651 0.0793243 -0.128676 0.760784
0.3782 -0.0217763 -0.325112 0.644118
-0.073257 0.0287661 0.251595 0.67451
0.257542 -0.105593 0.0474026 0.690196
-0.256632 0.0461325 0.021655 0.680392
0.0603301 0.0719654 -0.140818 0.721569
-0.183629 0.0267501 0.277683 0.666667
-0.14099 0.0174232 -0.310466 0.690196
-0.0359125 -0.0781708 -0.1586 0.784314
-0.13206 -0.098613 0.0707658 0.709804
0.238296 0.086233 -0.315705 0.682353
0.105611 0.0683101 -0.419522 0.682353
0.278656 -0.0415605 0.0250296 0.678431
0.384331 -0.0398102 -0.00454876 0.678431
0.29831 0.0732769 -0.0398269 0.678431
-0.449973 0.0173948 0.0714262 0.615686
-0.289532 -0.0253642 0.0272729 0.678431
-0.0493303 0.0272223 -0.418727 0.682353
0.423836 -0.0303792 0.214123 0.647059
0.261899 0.0299174 -0.191206 0.682353
0.0772367 0.127986 0.021344 0.778431
0.157167 -0.131625 -0.0782632 0.737255
-0.0365905 -0.00103941 -0.334375 0.694118
0.194812 -0.0482286 0.326738 0.654902
-0.085927 -0.0741103 -0.44645 0.662745
-0.0402323 -0.0704932 0.386478 0.654902
0.139229 -0.00285777 0.211309 0.705882
0.0599655 -0.0106411 0.183112 0.698039
0.413503 -0.0378764 -0.185014 0.607843
0.0905487 0.0213637 -0.347648 0.658824
0.0913839 -0.0684565 0.12012 0.701961
-0.246719 -0.0663355 0.214523 0.677451
-0.274582 -0.0766918 -0.01009 0.712745
-0.0491951 -0.028285 -0.408224 0.678431
0.348402 -0.0335211 -0.240002 0.678431
-0.279416 0.0380689 0.195504 0.686275
0.175098 -0.0456447 -0.252464 0.690196
-0.392119 0.00335487 -0.324589 0.65098
0.391043 -0.0277238 0.0725664 0.65098
-0.075407 -0.0544581 0.157015 0.709804
-0.155714 -0.0375057 0.273112 0.662745
-0.29457 0.0278874 0.00698 0.684314
0.435858 -0.0360946 -0.116438 0.645098
0.0869561 0.0306499 -0.412351 0.686275
-0.319714 -0.0152714 -0.0011973 0.67451
-0.392519 -0.0476977 0.0664187 0.672549
0.490644 -0.0455143 -0.0556137 0.608824
0.333281 0.00876039 0.338287 0.639216
-0.19309 -0.0383118 0.0619457 0.729412
0.470654 -0.0687774 0.184813 0.647059
-0.0382849 0.0383988 -0.364229 0.639216
0.313714 -0.0749763 0.15429 0.666667
0.493638 0.000691272 -0.158799 0.639216
-0.3315 -0.0296568 0.19676 0.619608
0.381266 -0.0391799 -0.0461811 0.629412
-0.0953541 -0.0342956 0.382896 0.658824
-0.218092 -0.0261744 0.456403 0.635294
-0.0395487 -0.0385936 -0.105062 0.776471
-0.0445366 -0.0286697 0.135174 0.721569
0.129838 0.0464404 0.275775 0.70098
0.381064 -0.0282926 0.0103514 0.67451
-0.247725 0.0110746 0.210473 0.682353
-0.178967 0.10983 -0.124019 0.699265
0.122843 -0.0931907 -0.0125501 0.717647
-0.00637838 0.0407133 0.483489 0.611765
0.209448 0.0801712 -0.190018 0.678248
-0.36576 -0.07988 -0.0270094 0.678431
-0.434346 0.0324457 0.174061 0.635294
0.0356354 -0.0799836 0.0985162 0.822549
-0.0438777 0.0826374 0.0284778 0.777696
0.378605 -0.0586845 -0.114175 0.690196
0.344809 -0.0245543 -0.324371 0.639216
-0.1076 0.0761319 -0.394553 0.678431
-0.291672 -0.0865755 0.12899 0.682353
-0.197669 -0.00110243 -0.348942 0.686275
-0.129223 -0.0577458 0.408092 0.676471
-0.480939 0.0295674 0.14099 0.631373
-0.0471731 0.0446889 0.316343 0.626471
0.346003 0.0448853 0.308071 0.623529
-0.268687 0.0381292 0.335675 0.678431
-0.433644 -0.0047268 0.0630092 0.647059
-0.00912542 0.0224799 0.290997 0.690196
-0.249301 0.0935013 -0.0597587 0.681373
0.152827 -0.0528267 0.284951 0.696078
0.36419 -0.000149811 -0.00210663 0.631373
-0.159506 0.0824162 0.157422 0.694118
-0.361651 -0.0351429 -0.155384 0.666667
0.0971502 -0.0246311 -0.339602 0.67451
0.259661 0.0331135 -0.113919 0.687255
0.244752 -0.0181847 -0.209575 0.690196
-0.152407 0.101003 -0.239663 0.690196
0.130825 -0.00966321 0.0297472 0.815686
-0.0485654 0.0729009 0.0189512 0.768627
0.354742 -0.0662516 0.276435 0.662745
0.0677714 -0.0399578 0.292155 0.694118
-0.350306 -0.0263167 -0.225975 0.627451
0.103615 0.0783444 -0.384226 0.679167
-0.403896 0.0125961 0.0540612 0.668627
-0.21499 -0.0553752 -0.0359171 0.721569
-0.35857 -0.0287237 0.17719 0.666667
0.31953 -0.00457019 -0.179068 0.678431
-0.410243 0.0777383 -0.0718544 0.676471
-0.112334 -0.0131337 -0.329491 0.694118
0.143464 -0.00202442 0.335098 0.655882
-0.385319 -0.0186115 -0.151403 0.682353
0.0969074 0.0993381 -0.00609361 0.821569
-0.0393527 0.0373421 -0.501683 0.627451
-0.291221 0.0853936 0.21655 0.673529
0.24127 -0.0368247 -0.159554 0.70098
-0.122272 0.00293182 0.0700585 0.811765
-0.465294 -0.0516098 0.000492357 0.65
0.189839 0.0972899 -0.0733872 0.698039
0.138038 0.0122715 -0.221282 0.709804
0.457122 0.0141598 -0.205436 0.666667
0.187677 0.0374342 0.226503 0.67451
0.05258 0.127723 0.189526 0.717647
-0.0743238 -0.0971869 -0.0829985 0.849755
-0.106803 -0.0914858 -0.260842 0.686275
-0.291912 0.0519609 -0.136544 0.713726
0.0839177 0.0342963 -0.334103 0.666667
0.256423 -0.070973 0.236367 0.65098
-0.0176672 -0.0494643 0.017462 0.866667
-0.145073 -0.128184 -0.0286419 0.748039
-0.246433 -0.0301926 -0.389342 0.667647
-0.294634 0.0267043 -0.380159 0.666667
0.184332 -0.0235992 0.430738 0.654902
-0.067611 -0.108244 -0.211698 0.768627
0.349081 0.0305952 0.00601356 0.639216
0.155111 0.00506627 -0.283731 0.670588
0.179433 -0.0500941 0.255272 0.678431
0.0874107 -0.101817 -0.361322 0.690196
-0.229277 0.0550358 -0.167676 0.717647
0.221271 0.111776 0.04286 0.698039
0.135842 0.0241787 -0.286391 0.686275
-0.0234254 0.083883 -0.115822 0.760784
-0.337016 0.0421187 0.176618 0.643137
0.291182 0.00527364 -0.261663 0.670588
0.0492218 0.0175069 0.444536 0.666667
-0.00497341 -0.0887254 0.0361542 0.772549
0.0436018 0.075976 -0.213973 0.690196
0.177304 0.105675 0.00488634 0.690196
0.444944 0.0382337 0.136624 0.647059
-0.321115 0.0310191 0.172412 0.67549
-0.0287292 -0.0841069 0.315926 0.664706
0.226673 0.10628 0.0534854 0.701961
-0.417153 0.0471432 -0.0948348 0.627451
-0.415067 0.00553114 -0.0745162 0.647059
0.0863848 0.046994 -0.310488 0.694118
-0.35277 0.0616012 -0.321835 0.620588
-0.0103637 0.00397097 0.0597729 0.751225
0.34539 -0.0639662 -0.0293749 0.686275
-0.33762 -0.0350583 0.31211 0.647059
-0.0794684 -0.0145163 0.0512585 0.807843
0.144371 0.0614917 0.262089 0.698039
-0.2224 0.0150923 -0.294676 0.67451
-0.0113575 0.0313774 0.0676862 0.847059
-0.04463 -0.0641131 -0.351858 0.647059
-0.645182 -0.0248537 0.321678 0.615686
-0.374091 0.028617 -0.322191 0.615686
0.112617 0.0980929 -0.218678 0.717647
-0.0703287 -0.082448 -0.326353 0.698039
0.160974 -0.0737746 0.220071 0.694118
0.0764109 -0.0160764 -0.277266 0.682353
0.184388 0.0637424 0.414266 0.647059
0.40248 0.0554572 -0.0587503 0.682353
0.0775015 -0.0683481 -0.333692 0.690196
0.210135 -0.000865238 -0.254048 0.658824
0.0735842 0.0373834 0.28482 0.686275
-0.327897 -0.0671824 -0.0836094 0.698039
0.213495 -0.0416223 0.2965 0.670588
0.212393 -0.0712349 0.400247 0.627451
-0.222396 0.0250719 -0.0919148 0.698039
-0.0035894 -0.0704976 -0.0917036 0.780392
-0.289946 -0.0711404 -0.166916 0.686275
-0.021021 -0.0697708 -0.15597 0.709804
-0.343835 -0.0163065 -0.238143 0.670588
0.293948 0.0117696 -0.215387 0.662745
0.266731 0.0627496 0.289971 0.676471
-0.446539 0.0224618 -0.139703 0.666667
-0.21902 0.0524099 0.0684189 0.776471
0.32734 0.0614299 0.289167 0.643137
-0.528037 -0.0539421 -0.0438699 0.619608
-0.145921 -0.0299956 -0.116882 0.711765
-0.144289 0.0429439 -0.308884 0.687255
-0.438873 0.0200032 0.126922 0.662745
0.385594 -0.0638075 -0.121274 0.686275
-0.329807 0.000711803 -0.148677 0.643137
-0.0424208 0.0647845 -0.33579 0.690196
-0.209636 0.0402076 -0.208086 0.682353
0.0684531 -0.125094 -0.150252 0.788235
0.0356059 -0.039521 -0.443197 0.64902
-0.098684 -0.102942 0.145276 0.70098
0.195237 0.0200976 -0.194802 0.698039
0.334633 -0.0680123 -0.279051 0.688235
0.147754 -0.074203 -0.167031 0.721569
-0.430279 -0.0639832 0.080837 0.639216
-0.193486 0.0344174 -0.172168 0.752941
0.0417993 0.0573301 0.247509 0.679412
-0.132221 -0.134895 -0.125927 0.815686
0.316578 0.0415607 -0.431987 0.662745
-0.445932 0.0150192 0.163895 0.666667
-0.0288207 -0.103419 0.257912 0.686275
0.0844438 -0.0631232 -0.434327 0.682353
-0.240574 -0.0928088 -0.177248 0.68652
-0.142518 -0.0602455 0.0400112 0.721569
-0.397078 0.0418871 0.129839 0.65098
0.25165 0.0324893 0.316039 0.666667
0.152991 0.137647 0.0432471 0.792157
0.28722 0.0953521 -0.154048 0.694118
0.1565 -0.0364871 0.278581 0.666667
0.312083 0.0537328 -0.406538 0.639216
0.32447 -0.079657 -0.0429244 0.690196
-0.396335 -0.0746127 -0.16968 0.678431
-0.214419 0.00795844 -0.10114 0.701961
-0.369806 -0.00282328 -0.12038 0.678431
-0.242576 0.0577277 -0.342048 0.670588
0.145073 -0.112658 -0.0393228 0.756863
-0.445776 0.0500819 -0.21301 0.6
-0.0177433 -0.051582 0.329894 0.643137
-0.112492 -0.0668944 -0.351498 0.654902
0.131915 0.0319673 -0.174855 0.698039
-0.0849356 -0.0736027 -0.308197 0.698039
0.371678 0.0645812 -0.110379 0.643137
-0.241808 -0.073664 -0.0315237 0.709804
0.325664 0.0153592 -0.0832224 0.678431
0.250162 -0.0360678 0.0854029 0.721569
-0.397068 -0.0589293 -0.0937624 0.615686
-0.48351 -0.00226759 -0.187193 0.616667
-0.346571 0.0147317 -0.165659 0.647059
0.279801 -0.00949461 -0.151481 0.682353
-0.286133 0.0276161 0.0652159 0.686275
-0.289087 -0.0423722 0.344112 0.659314
0.135075 -0.0568752 -0.364348 0.635294
0.421213 0.0168605 -0.0745139 0.65098
-0.50047 0.071903 0.0190356 0.643137
-0.169582 0.106084 0.204963 0.709804
0.373808 -0.05494 -0.323994 0.603922
0.109474 -0.00354527 -0.350517 0.690196
-0.305716 -0.0279639 -0.25991 0.623529
