0.278395 -0.00192597 -0.412296 0.636275
0.309315 0.00306021 -0.0642984 0.636029
-0.338453 0.00184623 0.240429 0.654902
0.129037 -0.000992222 -0.435641 0.651961
-0.332025 0.00320573 0.13921 0.639216
-0.0427648 0.017639 0.0492597 0.878431
0.221146 0.0161333 -0.205298 0.635294
-0.354141 0.00267033 0.242522 0.65098
0.00649252 0.0100122 0.278756 0.639216
-0.163639 -0.000433108 0.468436 0.635294
-0.249075 -0.00243619 -0.163886 0.662745
0.15854 0.0110267 0.0992656 0.984314
0.0616872 -0.0156523 0.257682 0.639216
-0.174566 -0.0257378 -0.147637 0.862745
-0.111511 -0.0014404 0.12955 0.678431
-0.0976849 -0.000107129 -0.0447278 0.994118
-0.0513715 0.0222363 -0.242038 0.639216
0.379673 0.000563002 -0.140944 0.635294
0.0890051 0.025282 -0.187232 0.641176
-0.349366 -0.00139911 0.308166 0.65098
-0.13511 -0.000463293 -0.438078 0.65098
0.446038 0.000728897 0.300962 0.690196
0.120599 0.0239146 -0.0951834 0.647059
0.339631 0.00462161 0.191328 0.752941
-0.223349 0.00152826 0.422955 0.643137
0.137604 -0.0100748 -0.120748 0.639216
0.189237 -0.00908442 0.264606 0.639216
0.228053 0.00888293 0.114375 0.919363
0.265795 -0.0157233 -0.00062102 0.690196
-0.335461 0.00487499 0.0238845 0.639216
-0.66878 -4.35029e-05 0.236767 0.694118
0.0844677 -0.00598197 -0.136737 0.643137
0.392475 -0.000138846 -0.407939 0.639216
-0.376068 0.00548607 0.102279 0.635294
-0.487699 4.20916e-05 0.00962608 0.631373
-0.233443 0.0060563 0.154116 0.635294
-0.530822 0.000131741 0.298623 0.726471
0.210616 -0.00373372 -0.206879 0.635294
0.032707 -0.0190818 -0.147174 0.643137
-0.276317 0.000960975 0.0819485 0.635294
0.15767 -0.0216474 0.128276 0.8
-0.257642 -0.000400627 0.437112 0.694608
0.378512 0.00641302 -0.0606249 0.635294
-0.330671 0.00378096 0.0414497 0.639216
0.101598 -0.000607228 -0.278836 0.635294
-0.0869005 -0.0206092 -0.150079 0.647059
-0.269199 0.0136246 -0.140793 0.983333
-0.54408 -9.1262e-05 0.328261 0.74902
0.0137026 -0.0283399 0.13829 0.682353
-0.0160643 -0.0429674 0.073721 0.890196
0.0315512 -0.0115692 0.0560274 0.964706
-0.532503 6.04471e-05 0.291004 0.760784
-0.30564 0.0102792 -0.1451 0.988235
0.248522 0.0011175 -0.387871 0.633333
0.156401 0.00841345 0.0223049 0.941176
0.0234406 0.00104675 -0.45117 0.670588
0.213863 0.0153307 0.188873 0.647059
0.342543 -0.00528694 -0.160771 0.635294
0.0498725 -0.00806331 0.285179 0.639216
0.204681 0.00704073 -0.244947 0.635294
-0.116085 0.0111324 0.0427749 0.806863
0.563397 -1.58788e-05 -0.168648 0.643137
0.085355 0.00132103 0.204145 0.643137
0.038843 0.0371262 0.125448 0.722549
0.560612 0.000443714 -0.0213694 0.639216
-0.256237 -0.000688703 0.419306 0.635294
-0.206543 -0.00538594 0.214362 0.635294
0.115319 0.00888948 0.192088 0.645098
0.265883 -0.00796192 0.0999034 0.980392
-0.131492 0.00300765 -0.150687 0.65098
-0.233217 0.00631824 0.164386 0.635294
-0.279477 -0.000821245 0.456332 0.709804
0.0135816 0.00325679 -0.389478 0.641176
-0.00337502 -0.0200103 -0.22865 0.639216
-0.317627 0.00147625 0.28638 0.639216
-0.159326 -0.00384124 0.0758623 0.670588
-0.20499 -0.0270704 -0.0664116 1
-0.402034 -0.00467366 -0.0813645 0.635294
-0.0924278 -0.0178752 -0.23348 0.637255
0.618876 0.000245898 -0.0183835 0.636275
0.352968 -0.00791286 0.0761408 0.721569
0.10047 0.000152236 -0.220706 0.639216
-0.0674582 -0.00114346 0.193914 0.639216
-0.509122 -0.000197387 -0.114284 0.647059
0.567907 0.000210612 0.0354669 0.654902
0.55757 0.000154694 -0.201128 0.662745
-0.304148 0.000553279 -0.215687 0.643137
-0.320399 0.00584672 -0.0950707 0.941176
0.503351 0.000682417 0.181251 0.654902
-0.641951 8.11771e-05 0.191947 0.637455
-0.19088 0.0066256 0.153106 0.635294
0.0751763 -0.000509437 0.504513 0.662745
0.328622 -0.0043737 0.0964809 0.94902
0.0330866 0.021611 0.0862993 0.843137
0.0841652 0.00937209 -0.076811 0.72549
-0.120297 0.00145301 0.28751 0.639216
-0.151217 0.00209445 0.266545 0.639216
0.00727053 -0.0323634 -0.0229004 1
-0.0836675 -0.0194422 0.181943 0.640441
0.110879 0.0201645 0.14663 0.705882
-0.00638475 -0.0440823 0.0543999 0.965686
-0.151681 0.0322207 0.0205127 0.827451
0.0165066 -0.0125565 -0.261622 0.639216
-0.167694 -0.00178704 -0.250848 0.635294
0.0258052 0.000177065 0.310427 0.639216
-0.0641204 -0.0242798 0.18215 0.637255
0.13599 -0.00561516 -0.277544 0.635294
0.0969404 0.00221087 0.444691 0.670588
-0.0921735 -0.00224852 -0.134494 0.745833
-0.0983621 -0.0135184 0.0709275 0.796078
0.423103 0.00141357 0.100711 0.737255
0.295318 -0.00128544 -0.0999619 0.635294
-0.246609 0.00153601 0.406833 0.666667
0.517232 -0.000104857 -0.19024 0.67451
0.401876 0.00103081 0.31643 0.662745
0.120713 -0.0242921 -0.135708 0.643137
0.252921 0.00149499 0.166017 0.72549
-0.19223 -0.015066 -0.168161 0.646078
-0.289142 -0.000550134 0.0148836 0.643137
-0.20182 -0.00215325 0.210141 0.639216
-0.3633 -0.0070286 -0.0735589 0.672549
-0.118394 -0.0261691 -0.188579 0.642157
0.344663 0.00266513 -0.196459 0.635294
0.473632 0.00107415 0.182703 0.658824
0.189201 0.00139441 -0.417463 0.717647
0.271918 0.000347017 -0.410107 0.643137
-0.178306 -0.00950308 0.11018 0.641422
0.112735 -0.0147661 0.0317816 0.980392
0.179835 0.0114059 -0.0365472 0.733333
-0.00362459 0.00339012 -0.421142 0.678431
0.0982994 -0.00683827 -0.0366463 0.902941
-0.421237 -5.37347e-05 0.415416 0.708824
-0.272564 -0.00209413 0.209935 0.635294
-0.29567 0.00194384 0.0450606 0.635294
0.583408 -0.000183028 -0.100566 0.631373
-0.0348086 0.0181315 -0.0901509 0.768627
-0.277092 -0.00356665 -0.221265 0.643137
0.111355 -0.0219987 -0.0501248 0.94902
0.200242 -0.00299183 -0.0386096 0.679412
0.0829206 0.022096 -0.166704 0.639216
-0.0220483 0.014185 -0.26206 0.635294
0.325979 -0.00900572 0.0337477 0.654902
0.233886 -0.00847007 -0.122849 0.635294
-0.294082 -0.00492824 0.108006 0.635294
-0.150226 0.0255488 0.0952213 0.647059
0.11964 -0.0110676 0.065914 0.968627
-0.339447 -0.00123228 -0.00621818 0.641176
0.133428 0.00136311 -0.459103 0.643137
0.0368769 -0.0327797 -0.17226 0.647059
0.141028 0.00159835 -0.438808 0.643137
0.366537 -0.00106815 -0.0598831 0.635294
0.228567 0.0122114 -0.223538 0.635294
-0.393073 -0.00200039 -0.167234 0.678431
0.0295985 0.00683971 -0.195806 0.639216
0.171811 0.00991881 0.0727039 0.968627
-0.0143142 -0.00589553 0.241157 0.639216
0.339308 0.000174225 -0.385449 0.644118
-0.339142 -0.000849026 0.374737 0.717647
-0.341908 0.00023101 0.39142 0.67451
0.0504752 0.00366756 0.20126 0.639216
-0.118292 0.0294521 -0.0145214 0.964706
-0.156549 -0.00807779 -0.196886 0.636275
-0.345132 0.000511536 0.404607 0.720588
0.330812 -0.0022359 -0.073524 0.635294
0.107468 0.0324173 0.0578546 0.980392
-0.228249 -0.0159296 0.117899 0.635294
-0.278853 0.00326978 0.0876227 0.635294
0.0571555 -0.034446 0.125639 0.670588
-0.375962 -0.00623585 0.0597536 0.639216
0.603377 -5.6023e-05 -0.0194516 0.666667
0.0832093 0.000356197 -0.472024 0.690196
-0.27566 0.000740185 0.465054 0.65098
0.0999091 0.00113787 -0.267072 0.635294
0.0647916 -0.00247897 -0.0817673 0.890196
-0.101583 -0.0312919 0.0277184 0.964706
0.209942 0.00150304 -0.443014 0.65098
-0.201179 -0.00554123 0.126845 0.639216
0.060543 0.00473907 -0.13073 0.647059
0.00678465 0.0310519 -0.123746 0.719118
-0.446546 -0.00237263 -0.171637 0.678431
0.122955 -0.0138717 -0.23081 0.639216
0.128148 0.011148 0.128688 0.752941
0.158693 0.00179978 -0.27597 0.635294
-0.0463302 0.0457317 0.053762 0.964706
-0.118204 0.000916763 -0.166784 0.647059
-0.0237967 -0.0243499 0.209494 0.640196
0.0265364 -0.00828064 0.207582 0.635294
0.0386679 0.0458094 -0.0171093 0.964706
-0.502992 -0.000187928 0.185174 0.690196
-0.034387 -0.0229417 -0.190437 0.639216
-0.38058 -0.00196616 0.25961 0.690196
-0.247413 0.000953206 -0.210043 0.643137
-0.162508 -0.00110384 0.163416 0.643137
0.352021 -0.00318439 -0.0497616 0.635294
0.269164 -0.0104602 0.132714 0.978431
-0.514324 8.79567e-05 0.335988 0.858824
0.441025 0.00128413 0.137016 0.65098
-0.146761 0.000259575 -0.300675 0.631373
-0.13803 0.0302043 -0.0151317 0.959559
0.618623 -4.88599e-05 -0.0735983 0.670588
0.425251 0.000891696 0.188712 0.701961
-0.395679 0.0010051 0.265027 0.75
0.176045 0.000243835 0.126118 0.701961
-0.342102 0.00608377 -0.090656 0.72549
-0.0438386 0.0102529 0.0086193 0.964706
0.0184971 -0.0464776 0.0086702 1
-0.0944083 0.018755 0.215226 0.635294
-0.101202 -0.0046814 -0.195109 0.639216
-0.0426478 0.00269507 -0.0344657 1
0.358969 0.00463212 -0.106347 0.635294
0.430994 -0.00212364 0.140777 0.717647
-0.488014 0.000903823 -0.0413123 0.683333
0.281449 0.00555168 0.104495 0.968627
0.00997801 -0.00704291 -0.306144 0.635294
0.139353 0.0178059 -0.136941 0.643137
0.308451 -0.00652795 0.0528339 0.780637
0.407008 -0.00345654 0.132299 0.752941
-0.0575291 -0.00921506 0.26209 0.639216
-0.0245353 -0.0264818 -0.0794102 0.928922
-0.363454 -0.00423533 -0.17698 0.72549
-0.333127 0.00144014 -0.13224 0.94902
-0.554017 7.60033e-05 0.251409 0.647059
0.0378797 -0.0170131 -0.29016 0.635294
-0.311268 -0.00399091 -0.185262 0.733333
0.0440856 -0.0184687 -0.247413 0.639216
-0.211418 -0.0229658 0.0572213 0.643137
0.594139 -0.00012751 -0.027209 0.659804
0.040679 0.0312588 0.00807349 0.982353
-0.286662 -0.00272229 0.150857 0.639216
0.178707 0.00136352 -0.176022 0.639216
-0.294622 -0.00382126 0.0220426 0.639216
0.129981 -0.0187668 0.0381936 0.970098
0.0836179 0.00214167 -0.451878 0.647059
-0.0222524 0.00234325 -0.407056 0.670588
0.299177 -0.001237 0.0086193 0.65098
0.393297 -0.00388741 0.19454 0.733333
0.107295 -0.0129796 -0.218573 0.635294
0.0616335 -0.0185814 0.2142 0.635294
-0.34251 -0.0074594 0.139177 0.639216
-0.202801 0.0126354 0.0987532 0.642157
-0.197928 -0.0016216 -0.243876 0.635294
0.374347 7.04173e-05 0.14265 0.780392
0.275104 -0.0117968 0.0579948 0.968627
0.140183 0.00252961 0.278169 0.639216
-0.0713624 0.00441854 -0.125789 0.678431
-0.210412 -0.00652228 -0.000593198 0.760784
-0.0979273 0.0119335 0.0659478 0.721569
-0.230218 -0.0179219 0.0548101 0.643382
0.248439 0.0025381 0.168386 0.732598
0.146109 0.0228061 -0.083643 0.647059
0.28754 -0.000818675 0.397422 0.639216
0.39466 -0.00278023 -0.0602351 0.635294
0.398607 0.00134713 0.196865 0.671569
-0.072304 0.0411173 -0.0315058 0.980392
-0.305474 -0.00502122 -0.0341652 0.733333
0.0541637 0.0273191 0.122227 0.74902
0.0754419 -0.0132291 0.276088 0.639216
0.103154 0.00364594 -0.163934 0.643137
-0.43626 0.000519823 0.344085 0.666667
0.274879 -0.0108246 0.0919182 0.984314
0.386845 0.00115031 0.223854 0.654902
-0.076341 0.0217977 -0.116711 0.658824
-0.0182024 -0.0436578 -0.0450007 0.962745
-0.30943 -0.00173586 0.14798 0.637255
0.116996 -0.0141293 -0.0596818 0.890196
0.129599 -0.0129729 -0.19399 0.639216
0.125656 -0.0109238 0.0495644 0.988235
-0.508101 -4.89787e-05 0.355442 0.678431
-0.529783 0.000163609 0.355154 0.678431
0.0601723 -0.00328766 -0.430082 0.654902
-0.0175937 -0.00675164 -0.0614508 0.960784
0.376033 0.00329175 0.00877993 0.635294
-0.0232685 0.000560571 0.306165 0.639216
-0.0603023 0.00969034 0.302512 0.639216
-0.204771 -0.00747249 -0.122138 0.866299
-0.00460684 0.00318941 -0.216189 0.639216
0.362265 -0.0075771 0.0826502 0.701961
-0.362903 9.97525e-06 -0.395247 0.670588
-0.104078 0.00548036 0.223764 0.639216
-0.0554362 0.0105795 0.261434 0.639216
0.0463987 0.0201874 0.263972 0.637255
0.103797 -0.0126552 -0.178329 0.639216
0.60088 0.00013579 0.0398835 0.647059
-0.29586 0.000759708 0.410126 0.703922
0.156919 0.00223956 -0.448638 0.647059
0.0996757 0.00323511 -0.398574 0.635294
0.302285 0.000803554 -0.433705 0.630392
-0.326866 0.00033897 0.406077 0.701961
0.0429048 0.0139016 0.278078 0.639216
0.59705 -0.000196248 0.0699656 0.717647
-0.378622 0.00144589 0.172012 0.639216
0.191867 0.000832792 0.461488 0.65098
-0.660995 7.03822e-05 0.241744 0.65098
0.183464 -0.0023647 -0.427952 0.654902
-0.0926421 -0.00103421 0.262505 0.639216
-0.131239 0.0126612 0.132741 0.670588
-0.122041 0.00562786 -0.137794 0.705882
0.033339 -0.0314716 -0.0963799 0.94902
-0.0176903 -0.03659 -0.10211 0.692157
-0.300142 -0.00497923 -0.176382 0.690196
-0.032837 -0.00882439 0.114569 0.784314
0.563985 -0.000162447 0.130083 0.647059
-0.148874 0.0297304 0.0167647 0.839216
-0.130013 -0.00420815 0.165523 0.643137
0.564842 4.96258e-06 -0.0352261 0.631373
0.511223 0.000183861 0.357395 0.74902
-0.0899524 0.0180875 0.0265538 0.951961
0.175614 0.00935155 0.205673 0.639216
0.388641 0.000859786 -0.0340584 0.635294
0.0534921 -0.0112905 -0.22292 0.639216
-0.000679537 0.00892996 0.245892 0.637255
-0.120767 -0.00365199 -0.0327684 0.980392
-0.554379 -0.000248035 -0.10493 0.647059
-0.640362 -5.51282e-05 0.249125 0.709804
-0.182473 0.0172976 0.0746814 0.65098
-0.183157 -0.0241696 0.122942 0.639216
-0.077364 -0.000149142 -0.504178 0.654902
-0.00781639 0.00438283 0.218554 0.639216
-0.115963 0.00643383 -0.223951 0.639216
0.226931 -0.0117802 -0.0324092 0.690196
0.114266 0.00765783 -0.172687 0.639216
0.0239763 -0.0266179 0.0551997 0.964706
0.16456 -0.00303117 0.0201873 0.964706
-0.307078 -0.000741969 0.427193 0.666667
0.414863 0.000667029 0.320368 0.690196
0.234103 -0.0118164 0.0475416 0.936275
-0.315168 -0.0137782 0.0739983 0.635294
-0.300104 0.00503705 0.0330441 0.639216
-0.348135 -0.00294926 0.000212449 0.639216
0.254249 -0.0053908 -0.0659577 0.643137
-0.16833 0.00294622 -0.0349984 0.922549
-0.207919 0.00233231 0.0998057 0.639216
-0.220416 -0.0148326 0.179898 0.635294
-0.0469854 0.0114693 -0.0555982 0.968627
0.211174 -0.00430627 0.00880602 0.788235
-0.0541548 -0.0420751 -0.0307045 0.980392
0.355398 -0.00643457 0.143972 0.980392
-0.219982 0.0100753 0.133256 0.635294
0.0538746 -0.000153421 -0.276095 0.635294
0.35064 -0.00627331 -0.135475 0.635294
0.0276777 -0.0158443 0.208839 0.639216
0.223878 -0.0147825 0.00191104 0.670588
-0.167444 0.0238916 -0.0350027 0.943137
0.329432 -0.00739644 -0.130787 0.635294
-0.0612525 -0.0144068 0.197869 0.635294
0.0471287 0.000855398 0.170014 0.647059
-0.240166 -0.0109206 -0.0345739 0.839216
-0.162646 -0.00951062 -0.2503 0.635294
0.157964 0.000788638 -0.465522 0.717647
-0.375275 -0.000393002 -0.12992 0.721569
-0.0505219 -0.0378064 0.0970368 0.803922
0.287501 -0.00313371 -0.0720265 0.639216
0.0494403 0.0200999 -0.000956798 0.984314
-0.526185 0.000511224 0.156346 0.635294
0.252657 -0.00258156 0.164248 0.94902
-0.0263875 0.0253358 0.0318269 0.964706
0.21723 -0.0102645 -0.164219 0.635294
-0.218707 0.0049514 -0.192073 0.651471
-0.200919 0.0118513 -0.17212 0.65098
-0.152366 0.00948787 0.252423 0.639216
-0.513122 0.000480953 -0.0619969 0.658824
0.0250506 -0.00283884 -0.446749 0.701961
0.128031 -0.0081163 -0.0903552 0.658824
0.581946 -0.000304104 -0.175042 0.631373
-0.190157 0.0165825 -0.129426 0.971078
-0.0733313 -0.00422131 -0.15296 0.643137
0.0314229 0.00163966 0.471814 0.678431
-0.0262049 -0.00339555 0.0312024 0.964706
0.236644 0.0180866 -0.131661 0.639216
0.056331 -0.032595 0.108389 0.941176
-0.110985 -0.00915858 -0.17999 0.640931
-0.244981 -0.00352673 0.184207 0.639216
0.065425 0.00190363 -0.486182 0.664706
0.157255 0.0202734 0.182061 0.643137
-0.2883 -0.0094087 0.161242 0.639216
0.249275 -0.00460535 -0.0887847 0.639216
0.247785 0.00271461 0.233152 0.639216
0.166698 0.0128177 0.23018 0.639216
-0.253883 0.00572138 -0.148994 0.854902
0.195117 0.0186491 -0.146272 0.639216
0.332517 0.00512952 -0.106337 0.635294
0.149571 -0.0184357 -0.133214 0.639216
0.127462 -0.00613337 -0.173139 0.639216
0.152878 0.0223853 -0.0976862 0.682353
0.26153 0.00414016 -0.0707875 0.639216
-0.0325246 0.00706394 -0.324666 0.635294
0.173627 0.0173195 0.0346131 0.941176
0.0676217 -0.00684512 -0.122335 0.639216
-0.115954 0.00911903 -0.225683 0.639216
0.274282 -0.011304 0.0719259 1
0.14044 -0.00102373 -0.211468 0.635294
-0.0713273 0.000560835 0.528125 0.752941
0.336045 -0.0022726 0.236867 0.635294
-0.121942 -0.0161426 0.158185 0.636275
0.0486537 0.00333939 -0.282927 0.647059
-0.131388 0.0100146 0.121879 0.643137
0.301348 0.00375877 -0.0266704 0.647059
-0.0630273 0.00691153 -0.0792146 1
0.248291 0.00227573 0.22656 0.643137
-0.150543 -0.0033043 0.219347 0.639216
0.467846 -0.000653452 -0.301497 0.635294
0.167946 0.00918151 0.048213 0.968627
0.0599124 0.0184713 -0.154256 0.643137
0.144805 -0.00736368 0.112708 0.94902
0.0634506 -0.0135918 -0.0489544 0.960784
0.347061 -0.000786386 0.110094 0.980392
0.224664 -0.00875879 0.253172 0.639216
-0.171604 0.0198864 -0.156731 0.647059
-0.18841 0.00752813 0.245797 0.639216
-0.37646 -0.000664867 0.389816 0.74902
-0.53725 -4.12771e-05 -0.0453641 0.701961
0.209998 -0.000847033 0.222023 0.639216
-0.0924789 0.00144061 0.480985 0.678431
0.303074 0.0110063 -0.0816343 0.637255
-0.676914 -2.94977e-05 0.179897 1.00392
-0.346152 0.000577946 0.43798 0.694118
-0.519251 0.000608158 -0.160402 0.690931
-0.368909 0.00194079 -0.12838 0.696752
0.23781 -0.0200176 -0.0445452 0.662745
0.0850265 0.00428706 -0.291178 0.635294
-0.565617 -0.000597263 -0.0645291 0.643137
-0.22075 -0.000377002 -0.439981 0.635294
-0.57466 -4.3099e-05 0.276156 0.74902
-0.00337648 0.0205097 0.173637 0.65098
-0.06061 0.0144022 0.168191 0.647059
-0.242567 0.00650735 0.192749 0.639216
0.0496972 -0.00205544 0.4568 0.649142
-0.0677398 -0.00378773 0.188896 0.639216
0.105873 -0.00698855 -0.0183397 0.964706
-0.183418 -0.0060346 -0.173856 0.647059
-0.00993285 -0.0370389 0.052803 0.968627
-0.199292 0.00424303 -0.152535 0.65098
-0.495735 0.000233805 0.337694 0.633333
-0.0180286 -0.000244041 0.480007 0.690196
0.195895 0.0079466 -0.283884 0.635294
0.143312 0.00935533 -0.205252 0.635294
0.386016 -0.000860629 0.322251 0.653922
0.519206 -5.57029e-06 -0.213674 0.670588
0.275174 0.00315245 0.0654516 0.984314
0.02658 -0.00713222 0.0760652 0.917647
-0.382144 0.00154795 -0.0551065 0.635294
-0.00152135 0.0175153 -0.14912 0.643137
-0.0638356 0.0126876 -0.272331 0.635294
-0.210326 -0.0042886 0.229691 0.635355
-0.473009 -7.8366e-06 0.225483 0.633333
0.513727 -0.000239767 -0.218311 0.647059
0.436172 0.000430236 0.330201 0.643137
-0.178218 -0.00619973 -0.284956 0.631373
-0.260395 0.00354782 0.170096 0.639216
0.0402486 -0.00722483 -0.220166 0.639216
0.193277 -0.00353946 0.19416 0.643382
0.22343 -0.00102723 -0.00804982 0.74902
-0.187733 0.00155839 0.14825 0.635294
0.519204 -6.43426e-05 -0.144451 0.635294
0.383352 -0.00391843 0.108888 0.716667
-0.105305 -0.0180453 -0.226851 0.639216
0.266944 -5.35286e-05 0.122011 0.964706
-0.382576 0.000231806 0.412049 0.701961
-0.342405 0.000332136 0.419395 0.669608
0.352451 0.00329007 -0.0855021 0.635294
0.0932449 0.0185126 -0.110235 0.701961
0.424449 0.000449453 0.159843 0.760784
0.594804 0.000319593 -0.0789051 0.635294
0.312479 -0.000125498 0.191447 0.639216
-0.17238 -0.00939653 0.0175135 0.776471
0.02456 0.0399088 -0.00971835 0.979167
0.0557049 -0.00149233 0.467505 0.694118
-0.21079 0.00642798 -0.128095 0.984314
0.167177 -0.0223082 0.155098 0.754898
0.364831 0.00452327 -0.0388646 0.635294
-0.0268982 -0.0226856 0.104108 0.804167
0.0913141 0.00402114 0.110478 0.728431
0.037938 0.0222612 0.187695 0.643137
0.26049 0.00476974 0.190308 0.647059
0.128446 -0.0198441 -0.0849609 0.670588
-0.18772 0.0192625 0.105295 0.643137
0.337668 0.00507028 -0.0290772 0.635294
-0.0754242 0.042069 -0.0394822 0.988235
0.347247 -0.00335997 0.0627251 0.717647
0.414205 0.00106585 0.162816 0.716667
0.221011 0.0143292 0.0143973 0.823529
-0.488077 6.964e-05 0.313957 0.690196
-0.538906 -0.000552794 0.12602 0.643137
0.136156 -0.00168389 -0.461301 0.654902
0.212473 -0.0158974 -0.181101 0.639216
0.164413 -0.0193658 0.157791 0.666667
0.258702 0.00387614 -0.0317337 0.643137
0.142511 -0.0311413 0.0571423 0.968627
-0.114906 0.00905698 -0.255408 0.635294
-0.207089 0.000624256 -0.421432 0.639216
0.0431369 0.0217392 -0.193843 0.639216
-0.213528 0.0288035 0.0383625 0.740441
-0.175636 0.00812499 -0.0358918 1
0.430023 -0.000901034 0.283829 0.643137
-0.123513 0.0255842 -0.154567 0.65098
-0.019872 -0.0152039 -0.0766722 0.885294
-0.291699 -0.000399853 -0.145874 0.945098
-0.171878 -0.0219393 -0.0517146 0.964706
0.345453 -0.000830473 -0.381685 0.639216
-0.527707 -0.000166641 0.32749 0.760784
0.0480643 -0.026878 0.0989314 0.814706
-0.109336 0.00232707 -0.433538 0.658824
-0.0363763 0.0209201 0.190822 0.645098
0.302355 0.00397444 0.142177 0.980392
-0.37626 -0.00154781 -0.0106569 0.65098
-0.193974 -0.00114284 0.0498854 0.69902
0.416985 0.00202599 0.124978 0.670588
-0.562177 0.000738068 0.00110403 0.682353
0.0358377 0.00933668 0.319508 0.639216
0.074579 0.00700418 -0.28995 0.631373
0.150209 0.00182599 -0.21555 0.635294
-0.125695 0.0177444 0.148444 0.643137
-0.0471796 -0.00920106 -0.25849 0.637255
-0.07725 0.0108682 0.0309426 0.964706
-0.129835 0.00629077 0.00684308 0.831373
-0.621315 3.92183e-05 0.222485 0.641912
0.164864 -0.00707407 0.0897187 0.964706
-0.0251453 -0.022182 -0.206617 0.639216
-0.0226684 0.00128878 0.268952 0.639216
0.0956035 0.010319 0.0112144 1
-0.241227 -0.00459793 -0.277432 0.631373
0.0627045 -0.0169886 0.157983 0.701961
-0.0479562 0.0102309 0.0996303 0.808824
0.3055 -0.000891789 0.0491719 0.721569
-0.427825 0.000172591 0.374418 0.647059
0.597058 0.000282629 0.0130518 0.643137
0.116367 0.00736874 -0.25652 0.635294
-0.0542129 0.00879317 -0.174914 0.643137
0.258569 0.00797455 -0.215186 0.635294
-0.389621 0.000557419 -0.31792 0.632353
0.155514 -0.00599913 -0.0732218 0.752941
-0.175121 0.0056308 0.107418 0.639216
-0.15181 -0.000776594 0.181401 0.635294
-0.263686 -0.00558528 -0.194613 0.643137
0.148729 -0.0133576 -0.221639 0.639216
0.163887 0.00859239 -0.107538 0.658824
-0.238667 -0.0019895 0.183267 0.635294
0.264362 0.000119244 0.411697 0.658824
0.302807 -0.00764669 -0.0640968 0.639216
0.437489 -0.000837725 0.220935 0.67451
0.541104 4.64444e-05 -0.209916 0.643137
0.339365 0.00579987 0.150358 0.803922
0.167466 -0.000242227 -0.00534973 0.964706
-0.184252 0.0117377 0.200437 0.639216
-0.203161 -0.0215048 0.170361 0.635294
-0.256428 -0.00234519 -0.196198 0.647059
-0.184969 0.00330459 -0.274993 0.635294
-0.10171 -0.0100054 -0.242507 0.639216
-0.248871 0.00191897 -0.346352 0.717647
0.223615 5.34411e-05 0.448833 0.712745
-0.307388 -0.000375032 -0.0050026 0.679412
0.210028 -0.0176086 0.169987 0.643137
-0.204501 -0.0139032 -0.116215 0.964706
-0.0643831 -0.0130365 0.03736 0.964706
-0.502932 -0.000207519 0.349468 0.727451
-0.384112 -0.00468515 -0.135393 0.733333
-0.350728 -0.00642338 -0.057618 0.654902
-0.552075 5.60035e-05 0.0344703 0.678431
-0.241608 0.018974 0.0397756 0.644118
-0.381719 -0.00170273 0.247332 0.760784
0.385372 -0.00242517 -0.0516779 0.635294
-0.15333 0.0214648 0.0534073 0.817218
0.272146 0.00395812 -0.00239012 0.647059
-0.32 -0.00460806 0.13054 0.639216
0.0618537 -0.0254898 -0.0489762 0.964706
0.222936 0.00660358 0.149895 0.831373
0.070249 0.0228634 -0.177756 0.639216
0.279464 -0.0041741 0.150315 0.980392
0.0467914 -0.000409491 -0.450788 0.643137
-0.311957 0.0120516 -0.0645146 0.988235
0.104319 0.00796453 0.222418 0.635294
0.289792 0.000536273 0.424099 0.643137
-0.45608 -1.29817e-06 0.36838 0.643137
-0.0989722 0.00762299 0.0864187 0.8
-0.22392 0.00454373 -0.268101 0.631373
0.0761015 0.0364638 -0.0525801 0.815686
0.375804 -0.00193267 0.109716 0.810539
0.402588 -0.000637975 0.126049 0.759804
0.211041 -0.0173578 0.139315 0.858824
0.0452603 0.00147567 0.467653 0.639216
0.0180711 0.0123562 0.27086 0.639216
-0.132167 -0.00870246 0.144534 0.643137
-0.41942 -0.00167066 0.216583 0.776471
0.0507438 -0.0182887 -0.00911403 0.97549
0.170645 -0.00111728 0.452228 0.654902
-0.0545445 -0.0194262 -0.154716 0.643137
-0.321319 -0.0123476 -0.00288918 0.670588
-0.190595 -0.00153855 0.453648 0.701961
0.425506 0.000296479 0.339314 0.643137
-0.245102 0.00136635 -0.202964 0.660784
0.350578 -0.00476774 -0.165544 0.631373
-0.0500358 -0.0124058 -0.176388 0.645098
0.141317 -0.00193112 -0.194696 0.639216
-0.200323 0.00753764 -0.140887 0.658824
-0.275899 0.0151071 -0.0195903 0.701961
-0.00860625 -0.000274023 0.450798 0.682353
0.00577591 0.0115214 -0.112506 0.74902
0.291207 -0.00875725 -0.156738 0.635294
-0.341826 -0.00136342 0.292824 0.654902
-0.212088 0.00103178 0.122262 0.635294
-0.416521 0.00102509 0.216602 0.74902
-0.290173 -0.00507863 -0.205181 0.65098
0.0785287 -0.0013356 -0.448703 0.658824
0.13567 0.0177202 -0.226438 0.639216
-0.11503 0.0167153 0.200744 0.635294
0.406323 -0.00448504 0.080115 0.662745
0.179872 0.00351255 -0.17016 0.635294
-0.333149 6.12488e-05 0.419096 0.721569
0.0289692 0.00126951 -0.442981 0.678431
-0.277915 0.00927263 0.0704882 0.635294
0.153332 0.0318202 0.0612027 0.968627
-0.442731 -0.000630496 0.17491 0.694118
0.222388 0.000445758 -0.407928 0.682353
-0.0776792 -0.0427413 -0.059123 0.988235
-0.12041 0.00154462 -0.211688 0.638235
0.167047 -0.00403494 -0.164098 0.639216
-0.385806 -0.00431878 -0.0875585 0.639216
-0.44724 -0.000158498 0.216821 0.741176
-0.339727 0.00682396 -0.182775 0.721569
-0.0763029 0.00319258 -0.435111 0.654902
0.485688 -0.00100699 0.164979 0.639216
-0.12523 -0.000302894 0.42954 0.670588
-0.295493 0.0046143 -0.235504 0.647059
0.399274 -0.00105038 0.18349 0.721569
0.00673352 -0.0184392 0.164022 0.647059
0.324135 -0.00358622 0.187174 0.682353
-0.297763 0.00463897 -0.158126 0.788235
-0.147856 0.0337945 0.0164584 0.77549
-0.300199 -0.002176 -0.372455 0.639216
0.171029 -0.00525962 -0.258731 0.635294
-0.0814447 -0.0175005 -0.0539198 0.988235
-0.0958501 -0.000805083 0.488102 0.691176
-0.409171 0.000592664 0.340761 0.658824
-0.108914 -0.00604306 0.168425 0.643137
-0.259051 -0.0172602 -0.0448123 0.823529
0.35745 0.00356991 0.0815573 0.759804
0.117521 0.01324 0.0752037 0.984314
0.0837961 -0.010503 -0.276882 0.635294
-0.0100158 -0.00838274 0.0928933 0.890196
0.135813 -0.00116043 0.0777142 0.964706
0.0290201 -0.00234789 -0.0990917 0.896078
0.0512487 -0.0154014 0.27719 0.639216
0.0779127 -0.00479606 0.16354 0.647059
0.0528734 0.00114764 0.482614 0.690196
0.0121643 -0.00102764 -0.21982 0.639216
0.161937 0.012976 0.210675 0.639216
0.476176 -0.000540826 0.111537 0.644118
0.294286 0.0115079 0.0979605 0.94902
0.296464 -0.00802623 -0.20695 0.635294
0.380935 -0.00105598 0.311535 0.682353
-0.40235 -0.00223484 0.262879 0.721569
-0.28139 -0.00340187 0.0143245 0.658824
0.0039575 -6.30244e-05 0.473053 0.686275
0.345396 0.000454892 0.342322 0.647059
-0.148643 0.016938 0.156627 0.639216
0.158748 0.000184804 -0.421974 0.65098
-0.137756 -0.00934448 -0.0408583 0.964706
-0.280833 -0.00542649 0.0402938 0.635294
0.523237 0.000232387 -0.207159 0.658824
-0.125435 0.00285356 -0.303176 0.635294
0.39509 0.00106616 -0.330573 0.659804
0.231815 0.0134012 -0.00784576 0.705882
-0.351466 -0.000967089 -0.192805 0.67451
-0.279434 0.000123956 -0.132915 0.980392
0.347816 -0.00218743 0.00890518 0.639216
-0.655001 -3.5193e-06 0.0901361 0.890196
-0.245695 -0.0191349 0.0008051 0.67451
0.537093 -0.000378311 -0.197388 0.67451
0.0529638 0.0338699 0.0719418 0.964461
0.0235208 0.0335507 0.0170333 1
-0.0990712 -0.0186277 -0.0064694 0.982353
-0.0383905 -0.000270456 0.46895 0.764706
-0.126675 -0.0172953 -0.176611 0.654902
0.196976 0.0251383 -0.0425647 0.721569
-0.0850382 -0.00848581 0.0580212 0.788833
-0.36497 -0.00303091 -0.0503863 0.65098
-0.0671211 -0.0109158 0.260029 0.639216
-0.262876 0.00140515 -0.119236 0.980392
0.0769946 0.0172332 0.248819 0.63701
0.383799 0.00153648 0.0409518 0.643137
0.0192195 0.00761182 0.138027 0.717647
0.345841 0.002524 0.126837 0.833333
0.274581 -0.0180298 0.0363236 0.752941
-0.357768 -0.00394681 0.0187527 0.639216
-0.560253 0.00010076 0.305242 0.742157
0.367741 -0.000904534 0.334343 0.643137
-0.0570839 -0.00615315 -0.304937 0.635294
0.152715 0.010641 -0.218084 0.635294
-0.11671 0.0203226 -0.0157751 0.968627
-0.08647 0.00177373 -0.161805 0.643137
-0.514198 -0.000526867 0.139516 0.690196
0.593377 0.000157395 -0.0706807 0.678431
-0.0907947 -0.0256832 -0.00664864 0.932598
-0.544938 9.87083e-05 0.0785712 0.701961
0.287705 -0.0145654 -0.0275098 0.642157
-0.20516 0.0130829 -0.247281 0.635294
0.196535 0.0208298 -0.074817 0.658824
-0.059396 -0.017472 0.221357 0.635294
-0.347606 0.000249869 -0.00391649 0.643137
0.131733 0.0168796 0.21787 0.637255
-0.333235 0.00589032 -0.0679574 0.698039
-0.274901 0.0025309 -0.191546 0.701961
0.067219 0.0124374 0.19291 0.643137
-0.0235252 -0.0137075 0.153289 0.678431
-0.421859 0.000775258 -0.150607 0.684314
-0.0524324 0.0348333 -0.00785137 0.973529
-0.521163 -0.000485098 -0.00809233 0.670588
0.406661 -0.000592563 0.269759 0.631373
-0.0261802 -0.007256 0.26127 0.639216
0.117928 0.0286221 0.0148091 0.984314
-0.276781 0.0132363 -0.0274863 0.678431
-0.185805 -0.017926 0.175232 0.635294
0.0971434 0.00675659 0.0677865 0.980392
-0.149365 0.0254479 0.0594789 0.72549
-0.544938 0.000449733 0.135005 0.682353
0.0221254 0.0205544 0.183799 0.647059
0.583398 -3.10502e-05 0.0552669 0.654902
-0.0611268 -0.0340628 0.0812653 0.831373
-0.176559 0.00834963 -0.269288 0.631373
0.254191 0.00918923 0.0928042 0.988235
-0.535222 0.000211041 0.3061 0.690196
0.0554261 0.0056622 -0.28871 0.635294
0.20208 -0.000155113 -0.441092 0.690196
0.224252 -0.0100007 -0.14173 0.639216
-0.132457 0.0325572 -0.0388998 0.982353
0.263187 0.000861963 -0.418629 0.640931
0.590475 0.00014349 -0.140938 0.666667
0.0528923 -0.0115847 -0.0643858 0.964706
-0.213248 0.00488746 -0.159716 0.878431
-0.251145 0.000242804 0.157602 0.635294
-0.151548 0.0172074 0.10172 0.661029
-0.26778 -0.0105682 0.114631 0.635294
-0.169363 0.000325137 -0.249939 0.635294
-0.209328 0.0022761 0.206505 0.63799
0.213878 0.011663 0.119762 0.988235
0.149642 -0.0232949 0.0137086 0.976471
0.437832 -0.000213809 0.22204 0.644118
-0.611727 -7.19947e-05 0.276588 0.670588
0.0580488 0.0110412 -0.21005 0.639216
-0.0736451 -0.0380765 -0.104717 0.717647
0.410991 -0.00261821 0.0787886 0.643137
0.10103 0.0146292 -0.10957 0.647059
-0.400812 -0.00491923 0.0335201 0.639216
-0.240439 0.00790012 -0.0326649 0.964706
-0.357752 0.00714379 0.0520502 0.638971
-0.113038 0.0312371 0.114208 0.664706
-0.347014 0.00633954 -0.175976 0.727451
0.0802686 -0.0082847 0.103489 0.788235
0.0213387 0.0045788 0.209633 0.639216
-0.0644708 -0.0111125 -0.304631 0.643137
-0.247258 0.00441236 -0.259437 0.631373
-0.140212 0.0054091 -0.125728 0.960784
-0.337771 -0.00136649 -0.164566 0.764706
-0.261303 0.000518192 0.420843 0.638235
0.477317 -0.000450435 0.292995 0.776471
0.326927 0.00606844 0.056649 0.673529
-0.225101 -0.00231091 0.0947045 0.639216
0.058027 0.011352 0.00559794 1
-0.205267 0.0127003 0.181269 0.638235
0.626134 -5.05189e-05 0.000107365 0.760784
0.300943 0.0131366 -0.098292 0.635294
-0.0416249 -0.00683735 -0.00490463 0.969608
-0.00523598 -0.0487335 -0.0216642 1
0.253474 0.00107215 -0.450808 0.678431
-0.392264 -0.000931016 0.246379 0.738235
0.422978 0.00104056 0.191349 0.717647
0.162168 0.00267497 0.0418891 0.964706
-0.139335 0.00675214 -0.262111 0.635294
0.0728759 0.00797103 -0.271105 0.635294
-0.0755074 -0.0058375 0.22384 0.637255
0.0929224 0.0214081 -0.146928 0.643137
-0.165723 0.00349314 -0.000708499 0.780392
-0.243805 -0.0125814 0.105432 0.635294
-0.0357854 -0.00276429 0.242532 0.635294
-0.020945 -0.00317593 -0.344149 0.635294
-0.0278805 -0.0248331 -0.169375 0.643137
0.0867208 -0.00660653 -0.171551 0.639216
0.162302 -0.0204953 0.13694 0.835294
0.335096 -0.00464912 -0.117409 0.635294
0.0584369 -0.00848355 0.318812 0.631373
0.465961 -0.000565576 0.129597 0.643137
-0.512739 -0.000228557 0.055321 0.666667
-0.413272 0.000196892 0.225439 0.690196
0.0797883 0.00103962 -0.433433 0.670588
0.0552669 0.0178972 0.204803 0.643137
0.251518 0.00281408 -0.208896 0.635294
0.0590165 -0.0289928 0.167298 0.670588
0.0428608 0.000673011 0.467164 0.678431
-0.111585 0.0229082 0.213922 0.635294
0.402377 -0.00063457 0.343726 0.640196
-0.0474221 0.00634125 0.267944 0.639216
0.226011 -0.0154933 0.146262 0.690196
-0.402105 0.000814558 -0.139204 0.720588
-0.37616 -0.000733788 0.268933 0.74902
0.400119 -0.00315744 0.0543154 0.663725
0.218421 -0.0203006 0.0358934 0.977451
-0.352362 -0.000307328 0.388787 0.721569
0.208727 0.0142506 -0.152745 0.639216
-0.3017 0.00155056 -0.196897 0.690196
0.42817 -0.000618089 0.321556 0.647059
0.311889 0.000810688 -0.441463 0.733333
-0.236441 -0.00212072 -0.0142531 0.917647
-0.153912 0.0103762 0.248478 0.639216
-0.0336717 -0.00266496 -0.437721 0.670588
-0.465669 0.000715389 -0.146592 0.65098
0.0213694 -0.00615246 0.109199 0.854902
-0.0900576 -0.021209 0.211895 0.635294
0.337503 0.006621 -0.170357 0.635294
-0.137559 0.0156228 -0.126617 0.784314
-0.0162085 0.00521066 0.0680026 0.958824
0.322128 -0.000393597 -0.0981955 0.635294
0.244274 0.0121561 -0.127869 0.639216
-0.0055687 0.0262898 -0.15863 0.645098
-0.179567 0.00441963 -0.198665 0.635294
0.362264 -0.0068147 -0.0568417 0.635294
0.215573 0.0107377 0.18822 0.647059
0.106196 -0.0223617 0.112724 0.760784
-0.168294 -0.00638913 -0.216099 0.635294
0.150586 -0.00188437 0.191948 0.643137
0.222002 -0.000501895 0.0197274 0.74902
0.302645 0.00231601 -0.162418 0.635294
-0.180286 -0.0126675 0.105519 0.658824
-0.549171 0.000132888 0.0172274 0.717647
0.122469 -0.00600113 0.0893133 0.92549
-0.169721 -0.0118499 0.235667 0.639216
-0.122161 -0.0180195 0.168247 0.643137
0.473841 0.000782867 0.145404 0.631373
0.0409693 0.0217133 -0.0876477 0.843137
0.0576022 0.000631186 0.463315 0.690196
0.180448 -0.0123213 0.166382 0.647059
0.0386998 -0.0102428 0.106923 0.946078
-0.415875 0.00049923 0.388563 0.67451
0.041346 0.0131748 0.158977 0.670588
-0.09288 -0.0191024 0.013081 0.964706
-0.0173837 -0.0160149 0.286765 0.639216
0.136707 0.00210537 0.0274323 0.980392
-0.215493 0.0158909 -0.0942827 0.964706
0.274916 0.00700099 0.148621 0.984314
-0.167869 -0.0216476 -0.121081 0.984314
-0.0285474 0.00840811 0.0437497 0.967647
0.361274 -0.00192098 0.0701307 0.737255
0.08041 -0.0148798 0.258048 0.639216
-0.568936 -0.000135191 -0.136575 0.74902
0.397369 -0.00595151 -0.0572283 0.635294
0.126779 -0.0187876 0.0948534 0.941176
0.0734363 0.0300156 -0.0750156 0.835294
-0.142334 -0.0134637 -0.180015 0.643137
0.446504 0.0011158 0.170202 0.701961
0.219248 0.00692465 0.175063 0.643137
-0.0156715 -0.0419169 -0.0514005 0.964706
-0.551087 -0.000671756 0.0151534 0.670588
-0.183488 -0.000753077 0.226574 0.639216
-0.519912 0.000539695 0.0923782 0.678431
0.316826 -0.0108425 -0.0121176 0.647059
0.137149 0.00220474 0.279582 0.639216
0.117531 -0.000576238 -0.470973 0.65098
-0.134383 -0.00763452 -0.243675 0.635294
-0.00318113 0.0376051 0.108142 0.771569
-0.00336649 0.0395864 -0.145412 0.688235
0.26919 -0.00975597 0.0622549 0.803922
-0.251512 0.00967875 0.081372 0.635294
-0.191065 0.011936 -0.23849 0.635294
0.211891 0.0103962 0.124016 0.980392
-0.172428 -0.00779985 -0.10211 0.980392
-0.639371 6.39424e-05 0.243104 0.717647
-0.498647 0.00107979 0.136356 0.693873
0.438332 0.00204378 0.168485 0.72549
0.0447189 0.000941695 0.0237411 1
0.216214 0.000832126 0.408412 0.678431
0.12858 0.0366398 -0.0433425 0.858824
-0.498794 -0.00101732 -0.0238742 0.745098
0.0797911 0.0200643 -0.209764 0.639216
-0.24465 -0.00496618 0.123164 0.635539
0.532798 -0.000148794 0.137023 0.635294
-0.11509 -0.00863363 0.251944 0.639216
-0.141015 -0.0162258 -0.0530877 0.984314
-0.140099 0.0144978 0.153008 0.635294
0.0566972 -0.000369818 0.275281 0.639216
-0.218103 -0.00155408 -0.270879 0.635294
-0.196491 0.0124536 0.113661 0.638235
-0.326723 -0.0055816 0.115294 0.635294
-0.321899 -0.000707958 -0.417246 0.631373
0.00210406 -0.00726788 -0.301231 0.635294
0.164485 0.000529334 -0.258286 0.635294
-0.208839 0.0166989 -0.0490259 0.992157
-0.412307 -0.00310349 -0.156689 0.701961
-0.326842 0.00843409 0.149693 0.638235
-0.186314 0.00436627 0.221919 0.639216
0.137991 -0.000900283 -0.42441 0.631373
-0.0167386 0.0177317 0.225911 0.635294
0.210697 0.000549805 -0.125317 0.639216
0.384006 -0.000986311 0.331716 0.670588
0.00839143 -0.0176746 -0.256424 0.639216
-0.131233 0.0131281 -0.123828 0.701961
0.139773 0.0192792 -0.153434 0.639216
-0.135285 -0.0158716 0.247069 0.639216
0.167691 -0.00211543 0.269025 0.639216
0.186844 0.0117235 0.0344586 0.988235
-0.332249 0.00480098 -0.115691 0.764706
0.0841682 0.00393526 0.0825934 0.88606
-0.315172 0.0070906 0.0100394 0.639216
0.167771 -0.00916608 0.157695 0.643137
-0.0546715 -0.01285 0.305333 0.639216
0.131981 -0.00118494 -0.457499 0.701961
0.363654 -0.00552231 0.168219 0.951961
0.145213 0.00321191 -0.403558 0.640196
-0.458119 0.00188368 0.0182811 0.654902
-0.475265 0.000507786 0.137166 0.631373
0.15488 0.0170668 0.0512402 0.966667
0.21549 -0.0153006 -0.0105737 0.701961
0.3489 0.000115101 -0.374888 0.662745
0.113404 0.000795881 -0.257542 0.635294
-0.207353 -0.0027014 0.0264867 0.717647
0.383025 0.00458174 0.0778689 0.643137
0.0896838 -0.00415496 0.284372 0.639216
0.494192 0.000587614 0.137953 0.648039
0.348586 0.00487593 -0.0633308 0.635294
0.0458748 -0.00801264 0.0252693 1
-0.181666 0.00992076 0.167107 0.635294
0.00791116 0.0119938 -0.115773 0.705882
0.366617 -6.88242e-05 -0.0839962 0.635294
0.163975 -0.0146126 -0.0325523 0.8
0.445509 0.000246143 0.236784 0.654902
-0.303385 -0.00268864 0.122193 0.635784
-0.166546 -0.000332212 0.110968 0.647059
0.0182899 -0.0270059 0.188971 0.641176
0.580796 0.000344328 -0.0728893 0.643137
-0.0896268 0.000195176 -0.0879981 0.890196
-0.142915 -0.00383203 0.0642911 0.717647
-0.314272 -0.00433568 -0.216525 0.645098
-0.535938 0.000219446 0.323431 0.784314
0.0497265 -0.00389675 -0.422442 0.643137
-0.534843 -0.000295951 -0.174007 0.670588
-0.453193 -0.000470572 0.324021 0.643137
-0.503279 -0.000635579 0.144598 0.662745
-0.0427544 0.00865957 0.291216 0.630392
0.139294 -0.00689921 0.167661 0.678431
-0.139301 -0.0341235 -0.0825028 0.994118
0.140484 -0.0188758 0.184266 0.643137
-0.434133 -0.00043337 0.351673 0.654902
0.508859 -0.000268077 0.167295 0.660784
-0.0499688 -0.014586 -0.086442 0.968627
0.190029 0.0231722 -0.06296 0.678431
-0.341476 -0.00576699 -0.100935 0.776471
0.176681 0.0317493 0.0214687 0.912745
-0.15891 0.0171709 -0.148186 0.647059
-0.0679063 0.00832121 0.00287459 0.964706
0.119634 -0.0169436 0.247445 0.639216
0.374227 -0.0050162 -0.134323 0.631373
0.220982 -0.000442905 -0.421074 0.670588
-0.244482 0.0084056 0.00999844 0.690196
0.232607 0.000274769 0.413971 0.643137
-0.00204833 0.026033 0.0349723 0.964706
-0.133551 -0.0216292 0.0892665 0.678431
0.185675 -0.00930815 -0.130271 0.643137
-0.0665546 -0.00193652 0.46324 0.705882
-0.391517 0.00264627 -0.183112 0.70098
-0.385728 0.00367544 -0.171214 0.67451
0.147127 -0.0200909 0.169095 0.654902
0.32873 -0.00326799 0.177261 0.682353
0.331221 -0.00298204 -0.182229 0.635294
-0.0750259 -0.00130981 0.238575 0.635294
0.617189 -0.000262824 0.0654935 0.643137
0.175877 0.0149383 -0.226081 0.635294
-0.209782 0.00837168 0.190608 0.636275
-0.0946256 -0.0102176 -0.0364594 0.984314
0.0205524 -0.0213908 0.113215 0.945098
0.641859 -0.00015207 -0.0129641 0.647059
-0.120872 -0.00205078 -0.0114812 0.941176
0.0919985 -0.00281641 -0.407061 0.639216
0.232431 -0.000477465 0.107722 0.964706
-0.234218 -0.00121124 -0.438368 0.670588
0.2432 0.00845183 -0.11968 0.639216
-0.0421663 -0.00317222 0.120049 0.760784
0.271153 0.006351 -0.131518 0.639216
0.0816038 0.011248 -0.253951 0.637255
-0.353592 0.004261 -0.0959906 0.819608
0.118235 -0.0017436 0.204755 0.638235
-0.362926 0.000421465 0.391799 0.748039
-0.565095 4.96167e-05 0.236312 0.647059
-0.52264 0.000154369 -0.0318051 0.670588
0.204792 0.000330141 -0.0251133 0.74902
-0.0261685 -0.0098139 0.247734 0.639216
-0.312436 -0.00839368 0.117941 0.639216
-0.124499 -0.00881715 -0.108709 0.824755
0.304086 0.00335732 0.132009 0.964706
-0.291944 -0.00515429 -0.100875 0.988235
-0.160844 -0.00535694 0.26628 0.639216
-0.695382 6.18221e-05 0.100747 0.784314
-0.104215 0.0230618 -0.15959 0.652941
0.561243 -0.000394371 -0.0708209 0.665686
-0.0786863 -0.000320929 0.459003 0.716667
0.0876593 0.0384325 0.0209114 0.980392
-0.120037 0.031824 -0.100728 0.953922
0.114303 -0.00253576 -0.400164 0.643137
-0.347263 -0.000399969 -0.0391712 0.65098
-0.332834 -0.00123525 -0.0111384 0.648039
-0.159627 -0.00288159 0.169079 0.664821
-0.320593 0.00708065 -0.0456486 0.665686
0.119878 -0.00807079 0.00446244 0.964706
0.314831 -0.000925829 -0.387401 0.654902
0.109513 0.0281907 -0.0436856 0.854902
-0.0110974 -0.0182978 -0.265694 0.639216
-0.0922512 0.0021457 0.445412 0.705882
0.267831 -0.000754885 -0.408247 0.654902
-0.13114 0.0161395 0.210767 0.635294
0.281698 0.00267612 -0.00490905 0.662745
0.0732249 0.00732343 -0.229626 0.639216
-0.460852 0.000934443 -0.15087 0.658824
0.340829 0.00131031 0.324064 0.631373
-0.57413 4.03593e-05 0.152488 0.647059
-0.141815 0.00444264 0.123597 0.643137
0.260253 -0.00460297 -0.0852556 0.641176
-0.387665 -0.0044845 0.0618157 0.639216
-0.127939 -0.012625 -0.24555 0.635294
0.0614963 -0.00744014 -0.176715 0.643137
0.386927 0.00543474 -0.0367937 0.635294
-0.288187 0.00708076 0.195413 0.670588
-0.17285 0.0272934 -0.10446 0.964706
-0.165998 -0.00434914 0.108703 0.658824
-0.345416 0.00233982 0.172549 0.639216
0.362545 -0.00443113 0.00272275 0.637255
-0.141524 -0.02701 0.117577 0.654902
-0.046936 0.000796144 -0.442298 0.742157
-0.0412978 -0.00932179 0.225521 0.635294
-0.106979 0.0153542 -0.254268 0.635294
-0.0605078 0.00311504 0.198504 0.639216
-0.393646 0.000216993 0.380005 0.709804
0.296038 -0.000817914 -0.0122433 0.643137
-0.0726308 -0.00297017 -0.160934 0.654902
-0.0919138 0.00204492 -0.188661 0.639216
0.191885 0.029211 -0.0983212 0.654902
0.539366 0.000452681 -0.199548 0.668627
-0.126284 0.0286649 -0.113686 0.746078
0.0875498 0.00753828 0.22895 0.639216
0.286875 0.00537606 0.0111442 0.678431
0.255075 0.00399798 -0.221866 0.635294
0.0361252 0.0389096 -0.0435061 0.960784
0.364809 -0.00569449 -0.0200591 0.635294
0.420695 0.000278665 0.136527 0.760784
0.0181865 0.00262578 0.053454 0.977083
0.170862 0.00978649 0.18163 0.647059
0.256791 -0.0123026 0.0994479 0.984314
-0.292459 -0.00651742 -0.1577 0.980392
-0.0799052 -0.000667528 0.452716 0.670588
0.238549 0.0162182 0.102081 0.980392
0.270336 0.00662205 -0.19818 0.635294
0.384912 0.00141738 -0.0269667 0.635294
0.0284365 -0.0151434 -0.14082 0.643137
-0.0312926 -0.0191302 0.168978 0.65098
-0.568569 6.97368e-05 0.29413 0.760784
-0.0527858 -0.0291512 0.175509 0.643137
0.0888651 -0.00524729 -0.0510853 0.945098
0.500689 0.00030675 -0.268489 0.631373
0.368628 -0.0057454 -0.150263 0.635294
0.219548 0.00845549 -0.16753 0.635294
-0.0526264 0.00100574 0.496938 0.717647
-0.176449 -0.000509784 -0.244245 0.635294
0.363532 -0.000784232 -0.062553 0.635294
0.0734042 0.000366455 0.508189 0.65098
-0.0754708 0.00190456 0.450478 0.737255
-0.405334 -0.00224389 -0.137023 0.694118
0.026097 -0.0386848 0.107829 0.839216
0.593494 0.000275394 0.0439847 0.658824
-0.0628257 -0.00907381 -0.247417 0.635294
0.106433 0.0140924 -0.135629 0.647059
-0.129285 0.0143561 -0.035359 0.980392
-0.301673 -0.00293229 -0.0478101 0.690196
-0.274478 -0.0100526 0.0390734 0.655882
0.278464 -0.00255533 -0.155218 0.635294
0.359917 0.00472158 -0.120852 0.632353
-0.418299 -0.00181147 -0.214744 0.631373
-0.531277 -7.81853e-05 0.307127 0.742157
-0.152372 -0.00622104 0.247328 0.639216
0.292309 -0.00991926 0.140306 0.964706
-0.246397 0.00075328 -0.365943 0.678431
-0.17549 -0.014931 -0.0447657 0.984314
0.149123 -0.0215208 0.0760972 0.960784
-0.057732 -0.00431053 -0.1979 0.639216
0.106506 -0.000325238 0.454016 0.639216
-0.219793 0.000874566 0.46014 0.639216
-0.00133486 0.000125949 0.514817 0.678431
-0.189116 0.00172995 -0.40445 0.690196
-0.29249 -0.0038803 -0.00786888 0.656863
-0.285305 -0.0150443 0.0664906 0.635294
-0.127605 0.000958333 0.0654881 0.694118
0.304335 0.00469344 0.171579 0.779902
0.114627 -0.008639 0.240518 0.639216
-0.0687629 0.0139682 0.182677 0.639216
-0.368258 0.00206387 -0.0816696 0.635294
0.201004 -0.000740993 -0.177748 0.636765
0.471617 0.000847048 0.14145 0.647059
0.429883 0.00273657 0.0721506 0.637255
-0.0673983 0.00740671 0.0143407 0.964706
-0.378549 0.000951649 -0.173298 0.72549
0.16928 -0.00469246 -0.23532 0.635294
0.0662891 -0.00707667 0.0709624 0.964706
-0.140458 -0.0112582 -0.180024 0.643137
-0.162988 -0.0145345 0.221383 0.639216
0.0552742 -0.0168649 0.197789 0.643137
-0.491727 0.000847703 0.159147 0.691176
-0.500077 0.000176194 0.308355 0.65098
-0.364742 0.00458284 -0.134182 0.72598
-0.290426 0.0111201 -0.138381 0.970588
-0.0679865 -0.017319 0.0866043 0.796078
-0.586384 -9.20031e-05 0.264448 0.77549
0.262621 0.00123551 -0.449899 0.643137
-0.400033 -5.9679e-05 0.224957 0.752941
-0.127206 -0.0180963 0.17674 0.63701
0.255927 0.0182561 0.00042385 0.661765
0.41655 0.000114231 0.0135554 0.631373
0.0674248 0.000806825 -0.427619 0.670588
-0.408533 -0.00125776 0.250015 0.743137
-0.0507643 0.00541134 -0.198908 0.641176
0.0178653 0.0106092 0.305719 0.631373
-0.448076 -0.000811496 0.256498 0.705882
0.309249 -0.0023386 -0.15618 0.635294
0.180219 -0.0103892 -0.178938 0.639216
-0.202899 -0.000958595 -0.404318 0.643137
0.27938 0.00434767 0.0469857 0.980392
-0.0157111 0.00447158 -0.0436243 0.980392
0.226264 -0.00599597 0.100289 0.968627
0.108049 0.00347802 -0.10267 0.72549
-0.0180709 0.0297578 0.174476 0.643137
0.00485067 0.0206464 -0.237708 0.639216
-0.118409 -0.0165846 0.107164 0.709804
0.000839809 -0.00920728 -0.272881 0.635294
-0.637587 -3.007e-05 0.128749 0.643137
-0.296407 -0.00176218 -0.148838 0.721569
-0.273093 0.00117658 0.418959 0.701961
-0.141476 0.00793099 -0.105029 0.964706
0.0216352 0.00217472 0.440746 0.639216
-0.303585 0.00699326 -0.141161 0.911765
0.495888 0.000114572 0.355664 0.717647
0.0532033 0.00231373 0.125158 0.705882
0.00143839 0.010896 -0.264776 0.637255
-0.30296 0.00142433 0.175306 0.635294
0.184326 -0.00088434 0.10628 0.964706
-0.282858 0.00746195 -0.234497 0.643137
-0.52213 0.000749602 0.102093 0.666667
0.606013 -0.000221577 -0.0690665 0.647059
0.0793299 -0.00756194 0.166846 0.645098
0.301986 -0.00720932 -0.171443 0.632353
-0.668971 1.12598e-06 0.238774 0.682353
-0.489605 -0.000431247 0.12526 0.737255
-0.108255 0.00928766 0.283314 0.63652
0.196125 0.0012258 0.193278 0.643137
-0.257346 -0.00961573 0.208245 0.639216
-0.265997 -0.00022306 -0.332292 0.643137
0.456376 0.00126352 0.147094 0.658824
0.00898107 -0.00595499 0.24762 0.639216
0.298326 -0.0118386 0.00914454 0.65098
-0.141946 0.00276277 -0.287621 0.635294
-0.09644 -0.0311294 -0.00558649 0.980392
0.318657 0.00372094 0.192631 0.835294
0.55157 7.4483e-05 -0.146942 0.662745
-0.149169 0.0122178 0.200168 0.635294
0.180292 0.00730041 -0.0691979 0.670588
0.084844 -0.000938282 0.52656 0.643137
0.153541 0.00102392 -0.462168 0.655882
-0.628888 -2.28012e-05 0.254425 0.709804
-0.107159 0.00217011 0.425602 0.658824
0.371659 -0.00267182 0.222479 0.65
0.4038 0.000409449 -0.337272 0.643137
0.600399 4.34859e-05 0.0696707 0.658824
0.00341734 0.00128112 -0.0555863 0.984314
-0.520033 0.00115706 -0.070561 0.705882
-0.104256 0.010994 0.156448 0.643137
-0.312936 0.000148427 0.302306 0.701961
0.00479233 0.0420715 0.0212731 0.997059
-0.286808 -0.0102305 0.00204687 0.690196
0.333508 0.00809584 0.152083 0.988235
0.0846615 -0.00268425 -0.250774 0.635294
0.110733 -0.000734082 -0.193037 0.639216
0.393156 0.000798027 0.331787 0.653922
-0.254963 -0.0123791 0.116516 0.635294
0.14744 -0.00968671 -0.267514 0.635294
0.0071452 0.00400922 -0.218356 0.639216
-0.517645 -0.000179556 0.329478 0.643137
-0.155689 -0.0177682 -0.184116 0.654902
-0.147289 0.0196604 0.0459258 0.831373
-0.119424 0.018568 -0.0580589 1
-0.102795 -0.00297425 -0.130296 0.666667
0.242174 -0.0186675 -0.045713 0.643137
0.0133 -0.00106296 0.479933 0.669608
-0.384394 -0.00602018 -0.0522093 0.666667
0.152907 0.0112829 -0.288864 0.635294
0.254673 -0.00620975 -0.230173 0.635294
-0.16692 0.00283396 -0.302283 0.634314
-0.243529 0.000210247 0.421227 0.709804
-0.0329612 -0.0361632 0.160069 0.678431
0.0227344 -0.00183696 -0.405941 0.643137
-0.00363627 0.00516756 -0.254288 0.639216
-0.524998 -0.000609839 -0.0866187 0.692157
-0.209821 0.0184023 -0.0955627 0.964706
-0.547675 0.000228889 0.304189 0.655882
-0.439497 0.000543496 0.239804 0.733333
-0.065466 -0.00153192 -0.208989 0.639216
0.10883 -0.00688266 -0.000985851 0.970588
0.100262 0.0246017 0.0737458 0.965686
0.106466 -0.0113991 0.264179 0.639216
0.369924 -0.00606233 0.141628 0.964706
-0.34901 -0.00549454 -0.0778223 0.721569
0.0457422 -0.0246649 -0.196693 0.639216
0.0514285 -0.00272056 0.118954 0.788235
0.266144 0.0099251 0.201347 0.643137
0.0322532 -0.00879671 -0.00779468 0.980392
0.311503 -0.000101699 -0.43559 0.8
-0.139106 -0.0150849 -0.255069 0.635294
-0.0961173 -0.000683738 0.104553 0.784314
0.610217 -0.000221516 0.09389 0.647059
0.269117 0.0125472 -0.0198501 0.690196
0.0788134 0.0132221 -0.0588969 0.754902
-0.0361792 -0.0142957 -0.224335 0.639216
