0.421412 0.00890087 -0.137198 0.755208
-0.459603 -0.0083351 -0.34142 0.820312
-0.109754 0.00931419 0.738851 0.822917
-0.589472 -0.00225606 -0.290735 0.769531
-0.581269 -0.0104666 0.165662 0.855469
-0.343586 -0.0134468 -0.235441 0.855469
0.594479 -0.00455759 -0.364643 0.792969
-0.587408 -0.0211599 0.259255 0.841146
-0.331904 0.00748667 0.331047 0.84375
0.359042 0.0264267 -0.519855 0.790365
0.494842 -0.0275663 0.00847234 0.847656
0.472999 0.033229 -0.24381 0.841146
-0.195134 -0.00538128 -0.0743994 0.914062
0.42231 0.00341769 -0.419468 0.847656
0.147737 0.0106973 -0.564836 0.886719
0.441119 -0.0259948 0.0539733 0.890625
-0.0376667 -0.010658 0.699235 0.785156
-0.482527 0.0296737 -0.135463 0.890625
-0.297486 -0.0134714 0.669263 0.820312
0.394712 0.0269354 0.0147653 0.824219
-0.200601 -0.0222297 0.0293985 0.957031
-0.04462 0.000442055 -0.667373 0.821615
-0.2499 -0.0264166 -0.249179 0.800781
-0.257048 0.000989019 -0.650842 0.792969
-0.184747 -0.00250746 -0.0530517 0.941406
-0.0846723 -0.0101611 -0.268937 0.800781
-0.540978 0.019216 -0.328147 0.783854
0.0955999 0.0189762 -0.560435 0.863281
-0.325743 0.00206601 0.129813 0.803385
-0.160111 -0.00879594 0.726446 0.808594
-0.167703 -0.0202692 0.428463 0.75
0.389103 0.0149941 -0.688508 0.828125
-0.607432 -0.00921165 -0.102566 0.785156
0.343998 0.0230448 -0.428616 0.859375
0.071895 0.00919173 -0.737404 0.822917
0.215341 -0.00507194 -0.312849 0.816406
-0.29956 0.0299268 -0.644657 0.84375
-0.408643 -0.0215392 0.237887 0.832031
-0.206716 -0.0298917 -0.417515 0.824219
-0.759135 0.0112993 -0.297907 0.816406
-0.282818 0.0287016 0.37768 0.890625
-0.620058 -0.010056 0.178604 0.871094
-0.392103 -0.00826787 -0.347858 0.822917
-0.189855 -0.00169838 -0.134281 0.867188
-0.314119 -0.0426023 -0.18755 0.824219
-0.16124 9.4831e-05 -0.436609 0.796875
-0.185279 -0.0312738 0.197697 0.798177
-0.0748241 0.00792336 -0.592988 0.863281
0.403677 0.0277063 0.031025 0.851562
-0.441126 -0.00535073 0.394967 0.847656
-0.0980895 -0.00962321 0.25958 0.90625
0.425059 -0.0119898 -0.345436 0.859375
0.42519 0.0362345 0.125257 0.902344
-0.492883 0.0153964 0.184192 0.820312
-0.327599 0.032266 -0.025039 0.847656
-0.269293 -0.014927 0.199078 0.820312
0.618324 -0.0331167 -0.0798253 0.832031
-0.238602 -0.0176924 0.640975 0.777344
0.60276 -0.00931686 0.300229 0.839844
-0.372957 -0.0103654 0.461025 0.78125
0.015043 -0.0502632 -0.110884 0.945312
0.525414 -0.00822186 -0.279983 0.824219
-0.541695 0.00359234 -0.560542 0.789062
-0.0303577 -0.003134 0.219162 0.921875
-0.627242 -0.015562 0.0407065 0.8125
-0.242981 -0.00094656 -0.766307 0.778646
-0.466894 -0.0226414 -0.200457 0.898438
0.042363 -0.0347747 0.265347 0.871094
0.083042 0.0359748 -0.0990809 0.954427
-0.292694 0.0166444 0.139459 0.8125
-0.103038 0.061406 0.124795 0.945312
-0.242177 -0.0168745 -0.757142 0.803385
-0.539743 0.0166374 0.0197896 0.804688
-0.256012 -0.0265496 0.427865 0.821615
0.0642577 0.0313568 0.533368 0.81901
0.00897184 -0.0453123 -0.197052 0.910156
0.0603215 -0.0130428 0.747614 0.821615
0.218357 0.0309981 -0.282158 0.871094
0.388556 0.029789 0.133924 0.897135
-0.47052 0.000859823 -0.270183 0.886719
-0.596709 0.0204928 -0.303535 0.824219
-0.290347 0.0109727 0.613945 0.808594
0.319115 -0.0183696 0.482474 0.847656
-0.311675 0.00568038 0.719084 0.813802
-0.213944 -0.0359549 0.210954 0.855469
-0.28371 0.0386561 0.141184 0.898438
-0.199215 0.0041146 -0.427916 0.824219
0.026557 0.00572737 -0.675112 0.808594
-0.28362 -0.02326 0.415555 0.832031
0.474549 -0.00847531 -0.34677 0.898438
-0.284622 0.00798591 -0.352162 0.828125
-0.571276 -0.0188948 -0.514983 0.804688
-0.265891 0.00700085 -0.0205328 0.894531
-0.158579 7.12215e-06 -0.0580578 0.957031
-0.0388428 -0.0178115 0.747936 0.785156
-0.118119 0.0147237 -0.474397 0.765625
-0.17841 -0.00912883 -0.470058 0.847656
-0.00813133 0.0266634 0.718738 0.800781
-0.31761 -0.00103374 -0.593225 0.863281
-0.288765 -0.00227603 -0.24563 0.851562
-0.576313 0.00918414 -0.0643222 0.824219
0.038348 0.0198969 -0.453127 0.839844
0.271094 -0.0510774 -0.109001 0.894531
0.260068 -0.0335095 -0.144329 0.903646
-0.245525 -0.0557124 -0.00482919 0.925781
0.425589 0.00969905 -0.628496 0.765625
0.215596 -0.0461325 0.165285 0.765625
-0.487978 -0.0326979 -0.0535212 0.859375
0.00515732 -0.0102521 0.509725 0.794271
0.362495 -0.0133677 -0.443604 0.875
0.0200998 0.0110931 -0.460264 0.835938
0.435137 0.00322777 -0.13216 0.75
-0.26528 -0.0274743 0.686008 0.773438
0.199555 0.0346528 -0.0929412 0.921875
0.0494557 -0.0539812 0.0490846 0.96875
-0.719798 0.0182436 -0.420938 0.8125
-0.0220627 0.0311174 -0.388392 0.878906
0.25474 -0.0322934 -0.0340889 0.914062
0.071552 0.00274724 -0.0663483 0.96875
0.0445574 -0.0353592 -0.346061 0.890625
0.109134 0.0261691 -0.294531 0.885417
-0.440378 0.00368502 -0.222873 0.914062
0.38772 -0.0393838 0.0167633 0.839844
0.504651 -0.0134969 -0.30047 0.841146
-0.0555814 -0.0554196 -0.109283 0.949219
-0.547885 0.0306592 -0.086485 0.851562
0.138587 -0.00770946 0.0296029 0.927083
-0.0236618 -0.040026 0.067427 0.933594
-0.472532 0.0154244 0.528003 0.792969
-0.245763 -0.0127665 0.0293019 0.925781
-0.775635 0.024829 -0.284246 0.769531
-0.458726 -0.000547493 0.495119 0.792969
-0.28917 0.0038837 -0.19939 0.789062
-0.553997 0.00448111 0.470471 0.757812
0.593503 0.025257 -0.154708 0.845052
0.59191 -0.0281832 -0.0508195 0.816406
-0.0563863 0.0417304 0.183591 0.941406
-0.153693 0.0166031 -0.654366 0.761719
-0.00450875 0.0723469 0.00533988 0.986979
-0.59238 -0.00538999 0.333748 0.770833
0.0576351 0.0228325 -0.290831 0.902344
-0.155405 0.0157738 -0.0987521 0.923177
-0.0462549 -0.0262509 -0.548773 0.820312
-0.455108 0.0248085 -0.542675 0.832031
0.248372 0.0331691 0.196774 0.910156
-0.124808 0.0256841 0.313838 0.854167
-0.233341 0.0212097 -0.134231 0.863281
-0.206682 0.0382294 0.451624 0.851562
-0.161589 0.00607813 0.311527 0.800781
-0.418216 0.0102729 0.220245 0.808594
-0.293522 0.0114276 0.352446 0.863281
-0.305034 0.00118299 -0.791373 0.777344
0.455326 -0.00893126 -0.359118 0.871094
-0.22942 0.0198925 0.307167 0.757812
0.243319 -0.0282912 0.695865 0.773438
-0.477103 0.00719983 -0.334635 0.816406
0.14276 0.0196027 -0.774669 0.765625
0.346465 0.0241947 0.0974947 0.878906
-0.580338 0.00603515 -0.292739 0.789062
-0.0618816 0.0450246 0.0311012 0.976562
0.0113643 0.0117088 -0.166018 0.917969
0.128263 -0.00357069 -0.344439 0.834635
-0.438852 -0.0240103 0.219395 0.753906
-0.0186582 0.0109669 -0.53107 0.816406
0.0509907 0.0186423 -0.629589 0.802083
0.183657 0.0585453 -0.0163342 0.925781
-0.0968246 -0.0226493 -0.188905 0.890625
-0.29268 -0.0177695 -0.213585 0.835938
-0.00917252 -0.0485809 -0.101034 0.946615
0.230238 0.0111253 0.512268 0.804688
-0.207244 -0.0248904 -0.654018 0.807292
-0.457619 -0.0312688 0.4134 0.824219
0.461347 -0.0103839 -0.162786 0.800781
-0.142477 -0.0603038 -0.108651 0.914062
0.240876 0.0364974 0.237605 0.886719
-0.530163 -0.0279373 0.310913 0.882812
-0.499897 -0.0138109 0.0388676 0.847656
-0.398415 0.00762225 -0.743912 0.792969
0.235502 0.0481723 -0.0432858 0.90625
-0.193615 0.00573501 -0.77824 0.835938
0.477967 -0.0273911 0.0976491 0.878906
-0.0783021 0.0422612 0.0988029 0.945312
-0.141568 -0.0120548 -0.268702 0.789062
-0.0106912 -0.016983 0.352988 0.800781
-0.686449 -0.0163008 -0.259012 0.760417
-0.227746 0.0397511 -0.321469 0.878906
-0.378254 0.00428961 0.186768 0.773438
-0.252149 0.0425922 -0.0385021 0.929688
0.0967562 0.0212615 0.53897 0.807292
0.0297907 -0.0653063 -0.14395 0.929688
0.602169 0.0126748 -0.321994 0.799479
0.07404 0.00424418 -0.405206 0.789062
-0.486503 -0.0325984 -0.393385 0.835938
-0.187116 0.047724 0.236786 0.855469
0.0806127 0.00278077 -0.295418 0.902344
0.0112419 -0.0424608 0.00712792 0.984375
-0.0664369 -0.0335039 -0.294647 0.847656
0.3499 0.0292435 -0.61922 0.773438
0.149216 -0.0591325 0.00342203 0.941406
0.221136 0.0319767 -0.256451 0.863281
-0.025604 -0.0500934 -0.149751 0.933594
-0.591115 0.0152235 0.160455 0.855469
-0.043076 0.0647209 0.0450874 0.941406
0.370511 -0.0248112 -0.635713 0.777344
0.447026 0.0334544 -0.289795 0.85026
0.304994 0.0159306 -0.654146 0.800781
0.314082 0.0254447 0.222969 0.902344
0.201452 0.0430232 0.122271 0.772135
-0.155933 0.0362669 0.156505 0.902344
-0.355263 0.0305715 0.120135 0.832031
-0.144766 -0.0197947 -0.649878 0.772135
-0.127357 -0.0108641 -0.323807 0.871094
0.0313992 -0.0181244 0.104534 0.842448
-0.316736 -0.0304496 0.467256 0.792969
-0.3541 -0.0160617 0.0920647 0.84375
0.0776441 -0.0272515 -0.204381 0.914062
-0.123106 -0.0308943 -0.0504596 0.964844
-0.139337 -0.0266495 0.330084 0.796875
-0.472876 -0.0129713 0.146095 0.773438
0.410405 0.0261064 -0.298924 0.835938
0.0769371 0.0232487 0.186858 0.902344
0.477352 0.0270879 -0.278159 0.880208
-0.56011 0.00163675 -0.268802 0.785156
-0.530585 0.00646922 -0.205067 0.84375
-0.525468 0.00105515 0.110926 0.863281
-0.0451079 0.0098678 0.174403 0.954427
-0.542649 0.0131118 -0.528861 0.828125
-0.471563 -0.0253489 0.545133 0.769531
0.0439042 0.0215515 0.326228 0.855469
0.295828 0.0308888 -0.518874 0.890625
0.152474 0.0498529 0.0682352 0.917969
0.196365 0.0271148 0.0465855 0.911458
-0.152041 -0.0279767 -0.0475021 0.972656
-0.0240831 0.0317974 -0.0384749 0.985677
-0.255685 0.0344737 0.429939 0.826823
0.396466 -0.00852279 0.238975 0.78776
0.571921 -0.014394 -0.34002 0.777344
-0.836112 0.00884559 0.216655 0.746094
-0.511963 0.0265342 0.101073 0.820312
-0.319091 -0.0105534 -0.801771 0.761719
0.00269126 -0.0111327 -0.631993 0.851562
-0.845661 -0.0207308 -0.162093 0.753906
0.0444403 -0.0265658 0.24878 0.882812
-0.543429 0.014509 -0.0786886 0.898438
0.140113 0.0466448 0.242093 0.886719
-0.669675 -0.00971249 -0.129179 0.794271
-0.221154 0.0451195 -0.131424 0.894531
0.430129 0.0115288 -0.423768 0.826823
-0.00742854 -0.0422511 0.144004 0.917969
-0.511235 0.0206354 -0.719648 0.766927
-0.226185 0.00129736 -0.383588 0.802083
0.229696 -0.0244741 -0.505882 0.851562
-0.375285 -0.0295682 0.0949733 0.78125
-0.609763 -0.0166916 0.276904 0.768229
-0.0258162 -0.0554232 -0.199723 0.851562
-0.140077 0.0349038 -0.324126 0.875
0.234372 0.0366563 0.500011 0.859375
0.489394 -0.0314862 -0.263458 0.878906
0.438998 0.0334396 -0.144641 0.8125
-0.587176 0.0249797 -0.465185 0.785156
0.376836 0.00768315 0.232434 0.820312
0.498871 0.0388581 0.0244854 0.828125
-0.208686 0.0217993 0.21236 0.835938
-0.196574 -0.0593439 -0.0443849 0.934896
-0.282212 0.0165422 -0.661584 0.769531
-0.566815 0.000543042 -0.302152 0.78125
-0.111653 0.0178797 0.257138 0.86849
-0.373417 -0.00426861 -0.600576 0.800781
0.502983 0.00222303 0.0806259 0.824219
-0.348339 0.00354884 -0.592355 0.854167
0.0602157 0.0247743 0.566342 0.761719
-0.579843 -0.000980695 -0.501408 0.821615
0.0818104 -0.0303463 0.370024 0.8125
0.165068 0.0403773 -0.152357 0.921875
0.51806 0.0368054 -0.131115 0.914062
-0.321842 -0.00817322 0.391814 0.832031
0.212624 0.0154969 -0.316976 0.828125
0.329186 0.0126131 -0.699835 0.835938
-0.266273 -0.0303553 0.649685 0.820312
-0.0298012 -0.0513373 -0.15103 0.933594
0.257605 -0.0131127 0.271007 0.800781
-0.500809 0.0303897 0.215811 0.824219
0.0200868 0.0277658 -0.281958 0.910156
0.671341 0.0300048 0.221864 0.796875
0.0695264 0.0330834 -0.487964 0.863281
-0.14646 -0.00672416 0.294736 0.851562
-0.00209119 -0.0818265 0.0611926 0.921875
-0.140641 -0.0224256 -0.802919 0.824219
0.420261 0.0091554 -0.424165 0.859375
0.16609 0.0201975 -0.607029 0.8125
0.204415 0.0374113 -0.273595 0.878906
-0.595579 0.00431337 0.24904 0.832031
0.387986 -0.0133686 -0.704124 0.816406
-0.0493528 -0.0304065 0.0748716 0.921875
-0.819864 0.00339472 -0.147975 0.75
0.222522 0.0275423 -0.586267 0.871094
-0.77263 -0.00272477 -0.301465 0.796875
-0.204237 -0.0513005 -0.111492 0.914062
-0.355215 0.0237191 0.263254 0.863281
0.47137 -0.014434 -0.332361 0.890625
-0.361078 -0.0357573 -0.322497 0.861979
-0.102723 -0.0424392 0.23702 0.921875
0.189026 -0.0120878 0.481994 0.773438
0.0548237 -0.0328485 -0.217997 0.894531
0.624174 0.0267691 -0.295443 0.84375
0.504805 -0.0178215 -0.190311 0.886719
0.117656 -0.0211024 0.741842 0.776042
-0.309031 -0.0232845 0.684566 0.808594
0.402647 -0.0122343 0.446429 0.75651
-0.187862 -0.0407809 0.242085 0.859375
-0.567725 0.0266283 0.0266009 0.835938
-0.266402 -0.0306074 -0.224338 0.84375
0.378264 0.0228522 -0.688154 0.808594
-0.263666 0.00646245 0.344757 0.785156
0.0176768 0.00482914 0.505467 0.847656
-0.343085 -0.00415673 0.679554 0.78125
0.103472 -0.0745727 -0.0404594 0.950521
-0.166789 -0.00941945 -0.756396 0.855469
-0.138906 -0.0395826 0.32443 0.813802
-0.591415 0.0308861 -0.29997 0.777344
-0.561101 -0.0294913 -0.23815 0.765625
-0.202207 7.77846e-05 0.0945839 0.957031
0.426525 0.0313272 -0.162573 0.785156
0.302286 0.000448387 0.486775 0.815104
-0.0425635 -0.00423297 -0.207638 0.8125
-0.265442 -0.0398843 0.126017 0.865885
-0.0777876 0.0204447 -0.482827 0.769531
-0.566825 -0.0175888 -0.29347 0.800781
-0.203729 -0.0614445 -0.0612276 0.929688
0.23386 0.0273795 -0.278615 0.875
-0.178792 0.00529147 0.00429223 0.957031
-0.0504644 -0.00373298 -0.00212998 0.980469
0.454075 -0.0343334 0.133707 0.761719
0.0469849 0.00977633 -0.802861 0.78125
0.114414 -0.0110065 -0.736556 0.832031
-0.513358 -0.0247068 0.00191313 0.863281
-0.273565 0.00243922 0.328294 0.761719
0.250522 0.00778956 0.268543 0.871094
-0.341904 0.00114152 -0.173283 0.78125
-0.486514 0.0331684 0.254188 0.824219
-0.437284 0.0113988 -0.0662785 0.75
-0.00103801 0.0373684 -0.476804 0.78125
0.169187 0.0210039 -0.0117377 0.9375
-0.189772 0.0290557 -0.401848 0.792969
0.386395 0.00551248 -0.665362 0.835938
-0.48086 0.0275817 -0.129387 0.869792
-0.420735 0.0154668 0.217986 0.835938
-0.519613 -0.00762386 -0.204082 0.804688
0.0482155 0.0347259 -0.600578 0.863281
-0.0334395 0.0214515 -0.055192 0.980469
-0.011356 0.026026 0.0643139 0.960938
-0.405601 0.0291275 0.232789 0.863281
-0.473322 0.0292125 -0.210367 0.867188
0.761239 0.023549 0.123045 0.769531
-0.667197 0.0180749 -0.491911 0.894531
-0.809645 0.0216586 -0.325399 0.753906
-0.595692 -0.0117037 0.141104 0.860677
-0.297624 0.020606 0.355612 0.835938
0.644606 0.0167784 -0.246089 0.835938
0.145666 -0.0219255 -0.393943 0.796875
0.10664 -0.0189833 0.272778 0.859375
0.239159 0.0141141 -0.805633 0.782552
0.155453 0.0106968 -0.0728838 0.9375
-0.0990989 -0.0172081 0.0692568 0.953125
-0.370755 0.00126329 0.675812 0.815104
-0.0521374 -0.0224878 0.77142 0.761719
0.280569 -0.0234721 -0.152018 0.885417
-0.0307568 0.00783191 -0.21735 0.875
0.0945282 0.0174849 -0.315432 0.886719
0.0216413 0.0272892 -0.215803 0.886719
-0.0891585 0.00215652 -0.52731 0.824219
0.29314 -0.001381 -0.162635 0.875
0.191816 0.0334074 -0.371536 0.813802
0.349769 0.0256744 0.173309 0.921875
-0.452322 -0.00952538 -0.133246 0.914062
-0.288523 -0.0164202 0.386803 0.885417
0.43388 0.00334534 0.505039 0.772135
-0.0953382 0.00205695 -0.806208 0.777344
-0.221834 0.0103061 0.284053 0.861979
-0.252089 -0.0316119 0.248018 0.890625
0.45718 -0.0308774 -0.118999 0.802083
0.199492 -0.0202643 -0.581799 0.882812
-0.422574 0.0366947 -0.296836 0.867188
-0.588852 -0.0258097 0.133424 0.878906
-0.441602 0.0215832 -0.276883 0.867188
-0.765459 -0.0216926 -0.310648 0.761719
-0.592849 -0.0287624 0.305337 0.815104
0.143474 -0.0308373 -0.391639 0.820312
0.100952 -0.0314927 -0.0223831 0.953125
-0.453613 0.0172898 -0.35188 0.835938
-0.155872 -0.0697906 0.0165567 0.96875
0.484597 0.0277356 -0.105584 0.90625
-0.0964608 0.0568958 0.239306 0.929688
0.0357884 -0.0569469 -0.221996 0.882812
0.122512 0.00327722 -0.139446 0.929688
0.0651951 0.0873037 0.0344952 0.964844
0.11264 -0.0229266 0.0910722 0.890625
0.0354478 0.0237288 0.362555 0.796875
-0.146273 -0.0358885 -0.394421 0.871094
-0.0784723 -0.0142208 0.185726 0.949219
0.632167 -0.0249966 0.300778 0.84375
0.0461681 0.00622938 0.563436 0.824219
0.17029 -0.00832631 0.0117412 0.923177
0.356649 0.0135503 -0.706194 0.792969
-0.103342 -0.00773636 0.209832 0.925781
-0.178214 0.0150812 -0.796231 0.847656
0.527432 0.0221985 -0.349784 0.746094
-0.283121 0.00994486 -0.0375213 0.828125
-0.381056 -0.00708294 0.4106 0.859375
0.1527 0.0177878 -0.0242332 0.9375
0.267767 -0.0191926 -0.405826 0.792969
0.616197 -0.0251127 -0.356075 0.78125
0.550076 -0.00857277 -0.0226469 0.785156
-0.0740393 -0.0626116 -0.0924953 0.960938
0.0813495 -0.0428033 0.207014 0.921875
0.159354 -0.0187135 -0.414173 0.800781
0.156429 0.00498172 0.0462877 0.902344
8.88481e-05 0.0357009 -0.0312296 0.984375
0.443431 0.0138292 -0.0186663 0.871094
-0.520786 -0.0315056 0.267037 0.890625
0.617336 -0.0057061 -0.14389 0.832031
0.249797 0.0225965 -0.103998 0.891927
-0.621442 0.0173762 0.0408276 0.769531
0.450914 -0.0136527 -0.0633014 0.873698
-0.582762 -0.013567 -0.155979 0.804688
-0.416356 -0.0233894 0.321127 0.832031
-0.176525 -0.0210187 -0.758253 0.782552
-0.124523 -0.0175344 0.082059 0.96875
-0.0890558 0.00176746 0.531945 0.809896
-0.484188 0.0261604 0.407301 0.828125
-0.412242 0.0197958 -0.530208 0.852865
-0.273577 0.0257767 0.476027 0.808594
-0.46126 0.00721186 0.284968 0.829427
0.0134594 -0.0263071 0.452873 0.789062
0.175939 -0.0192673 0.283895 0.804688
-0.263247 -0.0263621 0.414362 0.832031
-0.617501 -0.0188469 0.0933543 0.796875
-0.146038 -0.0561459 0.0079322 0.96875
0.577308 0.0139832 -0.337168 0.829427
-0.0445361 -0.0175091 -0.530208 0.765625
0.0134516 -0.0142639 -0.144597 0.928385
0.060037 -0.0417763 -0.273855 0.90625
-0.590742 -0.00892048 -0.529 0.832031
-0.147198 -0.0300578 -0.31684 0.816406
-0.526519 0.0353158 0.220285 0.83724
0.342917 -0.0293742 0.482527 0.821615
-0.102157 -0.0461921 -0.199805 0.84375
-0.271534 0.0157927 -0.553389 0.753906
-0.109771 0.0331221 -0.53541 0.765625
0.43469 -0.00644421 -0.464263 0.800781
0.242582 0.0240695 -0.342833 0.832031
-0.0872559 -0.000640231 0.369626 0.835938
-0.539017 -0.0127833 0.21732 0.872396
-0.298838 0.0175168 -0.772171 0.803385
-0.463646 -0.0209049 0.10533 0.789062
-0.639447 -0.0230518 -0.501884 0.85026
-0.0158339 -0.0224525 0.15751 0.894531
-0.527873 0.00805661 -0.141156 0.824219
0.0646159 -0.0128547 -0.389391 0.81901
-0.183017 0.0249976 -0.0363694 0.949219
-0.346426 0.0143717 0.331155 0.841146
0.154432 0.0470019 -0.243105 0.882812
-0.534681 -0.0337353 -0.0513816 0.891927
0.113147 0.00602813 -0.326886 0.886719
0.541026 0.0132937 -0.524455 0.839844
0.132974 0.022383 -0.590505 0.882812
0.543526 0.000823432 -0.340224 0.84375
-0.137445 -0.00814842 -0.594472 0.809896
0.0686084 0.0539531 0.174521 0.773438
-0.523709 -0.0186083 -0.369882 0.851562
-0.137357 -0.0322058 0.241186 0.833333
-0.00534159 0.0482465 -0.253234 0.828125
0.152445 0.0217093 -0.719772 0.808594
-0.409774 -0.0220583 -0.180111 0.894531
0.206335 -0.0244945 -0.544321 0.861979
0.245941 -0.00548442 -0.0108501 0.882812
-0.177738 0.0452034 0.24187 0.832031
0.227087 -0.00897752 -0.382682 0.75
-0.578253 -0.0261964 -0.0492893 0.851562
-0.506416 0.00852601 0.516904 0.752604
-0.123711 -0.0312275 -0.574009 0.867188
0.78156 0.000103959 0.0986835 0.747396
0.085218 -0.0625921 0.0941904 0.91276
0.185345 0.0174702 0.182163 0.917969
0.13084 -0.0144152 0.507583 0.828125
0.111272 0.0354663 -0.455123 0.84375
-0.345073 -0.022938 0.48585 0.796875
-0.292524 0.00525284 0.731472 0.759115
-0.227501 0.0154082 -0.675071 0.800781
0.148865 0.00574309 0.482554 0.786458
0.192568 -0.00457623 0.526495 0.859375
0.575116 -0.0346048 -0.0868726 0.832031
-0.376427 -0.0107856 0.335172 0.851562
-0.518745 0.0125354 0.0642267 0.875
-0.429193 -0.0284421 0.354701 0.84375
-0.0132179 0.0131457 -0.384247 0.875
-0.185245 -0.040516 0.128865 0.960938
-0.513075 -0.00359751 0.512842 0.751302
-0.152887 -0.0151966 -0.0699089 0.959635
-0.0768932 -0.027678 0.342816 0.832031
-0.0347577 -0.0177006 -0.462725 0.804688
-0.0659886 -0.0144927 -0.307483 0.848958
0.107399 0.00267765 -0.284645 0.90625
-0.569357 0.0314557 0.134314 0.875
-0.0742354 -0.00995709 0.236361 0.949219
0.640972 0.0300643 0.261523 0.839844
-0.142195 0.015108 0.310944 0.785156
-0.159115 -0.00943232 -0.482592 0.871094
0.108495 -0.0357562 -0.470306 0.746094
0.310474 0.00726823 -0.751405 0.760417
0.553577 0.0130964 -0.562504 0.785156
-0.792061 -0.0154127 -0.294802 0.764323
-0.0954637 -0.0430127 -0.115188 0.942708
0.662898 0.0132983 0.287611 0.789062
-0.170369 -0.0192557 -0.60798 0.863281
-0.0254241 0.0243909 0.382537 0.773438
0.121165 0.0128042 0.715263 0.800781
-0.0620259 -0.0429822 0.382414 0.753906
-0.403515 -0.0272252 -0.611534 0.824219
0.110321 -0.014281 0.702632 0.789062
-0.533059 -0.00195744 0.118635 0.878906
0.406191 -0.0166732 -0.780775 0.746094
-0.623787 -0.00941889 -0.195615 0.796875
0.469986 -0.0196096 0.0961845 0.873698
0.0723047 0.0408333 -0.373109 0.845052
-0.29819 -0.0146555 0.125029 0.813802
-0.0423503 -0.0374681 -0.0229581 0.984375
0.00293043 -0.00865956 -0.460319 0.833333
-0.158446 0.0277165 0.160127 0.953125
0.0642043 0.0126226 0.754516 0.796875
0.250109 0.0549197 0.108431 0.829427
-0.515377 0.0362712 -0.0753101 0.886719
0.610048 -0.00205371 0.267849 0.835938
-0.373115 -0.0380475 0.287088 0.851562
-0.48396 0.0225307 -0.482113 0.808594
0.169543 0.0531355 0.170797 0.808594
0.359971 0.00554073 0.627074 0.746094
0.28995 0.00181193 -0.552749 0.785156
0.362944 -0.00172441 0.53435 0.748698
0.0997706 -0.0646495 0.185614 0.886719
0.180263 0.0131337 -0.213595 0.890625
-0.348997 -0.0345627 0.289436 0.855469
-0.0798249 -0.034823 0.510344 0.777344
0.221078 -0.0288843 -0.595743 0.816406
0.00494976 0.00307507 -0.717312 0.824219
-0.305418 -0.0138049 -0.329871 0.84375
-0.425709 0.0204806 -0.250373 0.894531
-0.752023 -0.0162056 -0.41801 0.847656
-0.274284 0.0423724 0.0469066 0.886719
-0.0523868 -0.00374498 -0.340897 0.863281
-0.265223 -0.0403581 0.0869704 0.882812
0.340784 0.0277795 0.149624 0.914062
-0.582919 -0.0156896 -0.46907 0.752604
0.295237 -0.0329953 -0.141259 0.851562
-0.175011 0.00508808 -0.452866 0.804688
0.163907 -0.00974255 -0.0799817 0.929688
-0.592864 -0.0133749 0.118379 0.863281
0.181781 -0.0130839 -0.719718 0.84375
0.0761568 0.0103351 0.205993 0.834635
-0.152606 -0.0232718 0.499106 0.828125
-0.171494 0.000774618 -0.596495 0.799479
-0.471523 0.00205572 0.386567 0.848958
-0.156208 -0.018209 -0.528554 0.808594
0.626988 -0.0193984 -0.166486 0.842448
-0.175122 0.0497967 -0.0541613 0.929688
0.252346 0.0221431 -0.213493 0.875
0.499651 -0.000877209 0.107634 0.753906
-0.0458018 -0.0158351 -0.67358 0.820312
0.453276 -0.00776502 -0.31708 0.859375
-0.374658 -0.00278337 0.616643 0.753906
0.42661 -0.0397306 0.0921071 0.903646
-0.4917 -0.00334684 -0.515933 0.808594
0.0180909 0.0200455 0.739765 0.786458
-0.163925 -0.0194078 -0.142968 0.886719
0.650017 0.0191143 -0.17159 0.794271
-0.0758216 0.0310284 -0.402384 0.769531
0.329012 0.0422691 0.0310703 0.789062
0.563318 -0.00554554 -0.412772 0.863281
0.295557 -0.0104876 0.161318 0.910156
0.304491 0.0367875 -0.450676 0.876302
-0.237283 -0.0346221 -0.418753 0.792969
-0.681987 -0.00405921 -0.435977 0.847656
0.112235 -0.0330581 -0.549818 0.839844
-0.166182 0.00385423 -0.0868528 0.917969
0.100478 0.0348202 0.0184225 0.957031
-0.650875 0.00705096 0.170631 0.761719
0.00699764 -0.0153719 -0.474275 0.800781
0.388564 -0.0103331 -0.0395314 0.791667
-0.562238 0.0254922 0.231945 0.894531
-0.529714 0.0271962 -0.0631461 0.897135
-0.403919 -0.0277369 -0.572477 0.786458
-0.303784 -0.0377982 -0.00134201 0.832031
0.319292 0.00677028 -0.613122 0.792969
-0.614034 0.00225526 0.0558857 0.765625
0.512757 -0.0263139 -0.561943 0.804688
0.0426681 -0.012368 -0.0667704 0.954427
0.295771 0.0240635 -0.418174 0.839844
0.118486 -0.011738 -0.624887 0.867188
-0.470838 -0.0201191 -0.0594805 0.875
-0.242217 -0.0256808 -0.266713 0.832031
-0.534481 0.0251436 0.0055553 0.798177
0.397037 -0.0269972 -0.500206 0.773438
-0.260582 0.0298392 -0.467647 0.8125
-0.412911 0.018715 0.29223 0.835938
0.44613 -0.032942 0.241886 0.779948
0.432169 0.0315285 -0.0604952 0.81901
-0.656649 0.017973 -0.0482592 0.792969
0.413219 -0.0418521 -0.0628897 0.839844
-0.606694 0.0127034 0.0447322 0.796875
0.43115 -0.010918 0.46128 0.803385
0.331386 -0.0344874 -0.183657 0.809896
0.382642 -0.0256286 0.000186174 0.815104
-0.503533 -0.0291062 -0.227239 0.816406
0.547539 -0.0308457 -0.230696 0.845052
-0.180472 -0.0149493 -0.610198 0.835938
0.264876 -0.041668 -0.308299 0.761719
-0.500675 0.0244112 -0.556895 0.820312
-0.254097 0.0249521 -0.617076 0.820312
0.414106 0.0135734 -0.370131 0.875
0.161367 0.0235699 0.231196 0.917969
-0.094888 -0.0544866 0.062859 0.96875
-0.0865714 0.0590138 0.065442 0.957031
0.582514 -0.0311732 -0.17209 0.798177
0.0335002 0.022613 -0.198306 0.898438
-0.238206 0.0474103 0.162225 0.894531
0.269993 0.0332248 0.17327 0.904948
-0.472306 0.000140625 0.516384 0.773438
-0.588853 0.0311114 -0.0801826 0.792969
0.24209 -0.0225035 -0.170053 0.880208
0.0658537 -0.0253377 -0.249292 0.886719
0.244358 -0.0309729 -0.563112 0.878906
0.263928 0.0505838 0.159044 0.894531
-0.0633298 0.0190348 -0.155731 0.915365
0.752333 -0.0192395 0.118696 0.792969
0.513872 0.025194 -0.181294 0.871094
-0.0928867 0.00765698 0.175073 0.949219
0.58032 -0.0169822 -0.394278 0.847656
0.313377 0.000315123 0.0921206 0.839844
0.519154 0.0133288 -0.0537663 0.765625
0.250685 0.00444082 0.5161 0.869792
-0.396738 0.0182198 0.563454 0.828125
0.43709 0.0185678 -0.0340849 0.851562
0.325353 0.01361 -0.669142 0.8125
-0.550133 0.0049029 0.458785 0.746094
0.280113 0.0355154 -0.472816 0.851562
0.0559583 0.0124052 -0.231211 0.898438
-0.328787 0.0214759 0.625076 0.8125
-0.312949 -0.0190203 -0.330286 0.859375
0.061429 0.00243096 -0.566537 0.851562
0.611665 -0.00832414 -0.180376 0.839844
0.16897 0.0287545 0.507124 0.790365
0.011453 0.0253919 -0.433438 0.867188
0.1761 0.0172646 0.263965 0.882812
0.0665211 -0.0365721 -0.385658 0.871094
0.333925 0.0293177 -0.193282 0.753906
-0.0710704 -0.00830854 0.360105 0.824219
-0.753355 0.0230546 -0.356725 0.855469
-0.47915 0.00435703 0.213981 0.769531
0.390948 -0.0301282 -0.406678 0.871094
0.203042 0.0127251 0.17582 0.914062
-0.122238 0.0123293 -0.468824 0.822917
0.00428327 -0.0317698 -0.581995 0.882812
0.309042 0.0237527 -0.376213 0.84375
0.427116 -0.0390213 0.173303 0.769531
-0.027564 -0.0202247 0.123603 0.916667
0.183136 0.00319242 -0.600727 0.80599
0.374876 -0.0243604 0.673648 0.75
-0.211284 -0.0394717 -0.308726 0.886719
0.182529 0.018456 -0.254835 0.878906
0.601443 0.019106 -0.163065 0.822917
-0.779857 0.000770983 -0.315087 0.753906
-0.125505 0.01253 0.19605 0.925781
0.464139 0.0174546 0.0586376 0.90625
0.268402 0.0426379 0.0500724 0.786458
0.336154 -0.024248 -0.0219169 0.757812
-0.210726 0.044037 -0.170629 0.8125
-0.258884 -0.0106255 -0.487375 0.792969
-0.440664 -0.0218413 0.266468 0.8125
0.2968 0.00560219 0.0652931 0.772135
0.417687 0.0221562 -0.664488 0.828125
-0.345078 -0.0135991 0.0133772 0.8125
0.175751 0.0021987 -0.728551 0.848958
-0.0588827 0.0480395 0.041456 0.960938
-0.419676 -0.0299525 -0.342734 0.828125
-0.142642 0.0138746 -0.83235 0.753906
0.229511 -0.0598131 0.0378916 0.871094
-0.267137 0.0270022 0.0121579 0.914062
0.505678 -0.0211705 -0.0488322 0.789062
-0.287701 0.0256427 -0.744454 0.769531
0.236505 0.0565863 -0.0942044 0.917969
-0.265671 0.024079 0.736056 0.757812
0.196309 -0.0297074 0.056889 0.882812
0.293232 0.0441627 0.067478 0.792969
-0.443913 -0.0399113 0.143304 0.769531
-0.172368 -0.0605905 0.0627072 0.964844
0.029478 -0.0392695 -0.468234 0.8125
-0.0598219 -0.0659755 -0.0495094 0.984375
0.483344 -0.0222592 -0.411323 0.757812
-0.272373 -0.0342591 -0.0649345 0.746094
0.296588 -0.0348909 -0.156038 0.871094
0.400116 0.035171 0.034208 0.851562
-0.179424 0.054568 0.137095 0.945312
-0.469351 0.0225228 -0.637329 0.746094
-0.201598 -0.0539617 0.0670587 0.957031
0.346489 0.0287948 -0.553999 0.761719
-0.504228 -0.0185792 -0.357759 0.798177
-0.260717 0.05018 0.125889 0.90625
-0.223148 0.0322619 -0.592066 0.808594
-0.524216 0.000875214 -0.331465 0.832031
-0.0770028 -0.0041718 0.170679 0.9375
-0.754765 -0.00646385 -0.325114 0.792969
-0.41332 -0.000936885 -0.205094 0.890625
-0.026629 0.0360521 0.545943 0.828125
0.0478446 0.0836635 0.0919496 0.803385
0.13995 0.0292234 -0.626462 0.757812
-0.0585547 0.012615 -0.363431 0.832031
-0.719375 0.0200136 -0.466341 0.800781
-0.045874 -0.0752128 0.0528052 0.957031
-0.197921 0.0170293 0.409852 0.807292
0.232957 0.0626554 0.0335593 0.902344
-0.355998 -0.00934677 -0.166662 0.84375
0.0621972 0.0700859 -0.143381 0.945312
-0.548891 0.0143622 -0.0646486 0.860677
0.592213 0.00523172 -0.0449367 0.790365
-0.463703 0.0137515 0.4203 0.8125
0.0489721 0.0206037 -0.748974 0.84375
0.261563 0.0431364 0.168523 0.890625
0.127096 -0.00257449 0.558922 0.773438
-0.0633823 0.0266619 -0.456628 0.777344
0.329948 -0.025087 -0.0354661 0.75
0.426338 0.0228627 0.140297 0.855469
0.391892 0.0340435 -0.423669 0.855469
0.135647 0.00980157 0.550819 0.832031
0.415164 -0.037719 0.231717 0.777344
-0.0368458 0.0250333 -0.712595 0.770833
0.18523 0.00341068 -0.127372 0.919271
0.00428696 0.0195665 -0.799088 0.84375
-0.286012 -0.0135963 -0.516336 0.761719
-0.610433 -0.00806519 -0.298318 0.752604
-0.311983 0.00553284 -0.783311 0.789062
0.0554232 -0.0127561 -0.340545 0.875
-0.317452 -0.0278589 -0.32595 0.863281
0.0615961 -0.0325403 0.330745 0.839844
0.338766 -0.0263259 -0.435867 0.855469
0.369184 0.00368223 0.146667 0.90625
-0.616005 0.0242731 0.045268 0.777344
-0.843784 0.0124054 0.262617 0.761719
-0.0320472 -0.0309403 -0.0628145 0.980469
0.563275 0.021108 0.300326 0.766927
-0.154669 -0.00728818 0.174287 0.875
-0.254623 0.0220149 -0.656106 0.847656
-0.452228 -0.0367824 0.225898 0.816406
0.173107 -0.0104822 -0.770958 0.820312
0.641643 0.0177801 0.219721 0.822917
-0.231347 -0.0367007 -0.253299 0.832031
-0.12761 0.00491749 -0.616813 0.890625
-0.0962827 -0.0571877 0.180258 0.925781
0.23688 0.00456178 -0.222924 0.875
0.347627 -0.00518752 -0.511421 0.800781
-0.356704 0.00697816 -0.347585 0.829427
0.749084 0.00219803 0.176188 0.764323
-0.161213 0.00817276 -0.362561 0.902344
0.504184 -0.00666956 -0.10312 0.895833
-0.416947 -0.0286649 -0.60549 0.808594
0.198357 0.0226022 0.57332 0.753906
-0.113121 0.0110928 -0.307265 0.859375
0.261414 0.0269095 -0.586685 0.773438
0.421344 -0.0291687 -0.427284 0.846354
-0.278757 0.023745 0.499899 0.808594
0.681481 -0.00274506 0.226692 0.761719
0.191186 -0.0432974 0.075507 0.871094
-0.237827 -0.00226749 0.351963 0.766927
-0.429672 -0.0193831 -0.499352 0.799479
0.394389 -0.0401582 0.045343 0.875
-0.381036 -0.0170598 0.422567 0.792969
0.165296 -0.00202921 -0.583885 0.864583
0.30825 -0.00343938 -0.718893 0.825521
0.226335 -0.00655207 -0.540135 0.878906
0.127909 0.00489728 0.72366 0.746094
-0.719087 -0.00776839 -0.387929 0.847656
0.328317 0.0162837 -0.434222 0.864583
0.0541331 0.0213065 -0.755712 0.8125
0.388121 -0.00397668 -0.393051 0.851562
0.313008 0.000840832 -0.690344 0.816406
0.21325 0.0123823 -0.00416722 0.921875
0.00255991 -0.019593 -0.550506 0.761719
0.434971 -0.0370997 0.111916 0.898438
-0.109165 -0.0283838 0.193683 0.925781
0.219368 -0.0320259 0.259582 0.832031
-0.580816 0.0261987 0.253944 0.867188
0.45943 -0.0167862 -0.245799 0.863281
-0.0200856 0.00461845 0.533617 0.855469
-0.690978 -0.000547285 -0.425812 0.851562
0.218465 0.0249957 0.540942 0.773438
0.3303 0.0242968 -0.492397 0.871094
-0.0846745 0.0664873 -0.173544 0.910156
0.162252 0.0172078 0.251771 0.894531
0.325847 0.0085691 -0.661102 0.809896
0.0640474 0.00570176 -0.204703 0.910156
0.535884 -0.0113389 -0.436306 0.8125
-0.376325 0.0254981 -0.159275 0.851562
-0.372299 -0.0311446 -0.338998 0.846354
0.117018 0.0354455 0.0433865 0.941406
0.355217 -0.021147 -0.665884 0.820312
0.452166 -0.0324265 -0.220623 0.761719
0.157513 -0.0650236 -0.121445 0.9375
-0.108787 0.0612381 -0.102446 0.949219
-0.185311 -0.0226722 -0.771447 0.855469
-0.397474 -0.0199005 -0.776368 0.773438
-0.61024 -0.00887468 0.216401 0.852865
-0.246606 0.0300685 0.193712 0.859375
-0.621143 -0.0124831 0.107444 0.83724
-0.0311819 0.0631304 0.229142 0.898438
0.063563 -0.0123872 -0.0741409 0.953125
-0.294192 0.00860435 -0.620038 0.84375
-0.742085 0.0249375 -0.0376281 0.764323
0.231218 -0.0203059 -0.288509 0.863281
0.54304 -0.00377239 -0.518839 0.81901
0.0116713 0.0226171 0.718241 0.835938
0.0308689 0.0328138 -0.420917 0.839844
0.0203991 -0.0176865 0.320134 0.864583
-0.552926 -0.0297385 0.299875 0.835938
-0.118232 0.0131326 0.0178251 0.977865
0.455727 0.0250463 0.416365 0.792969
-0.307625 -0.0216329 -0.453078 0.792969
-0.253348 0.0122645 -0.439636 0.789062
0.207278 -0.00203619 -0.219537 0.867188
-0.247159 -0.00647283 0.47659 0.825521
0.408089 -0.0129668 -0.0679488 0.796875
0.0280029 -0.0285481 -0.262105 0.882812
-0.550574 0.0215721 0.151983 0.839844
0.602905 0.00309924 -0.142022 0.841146
-0.433883 0.0273686 -0.283351 0.867188
-0.28127 0.00851397 -0.41057 0.794271
0.346397 -0.0241802 -0.731122 0.8125
-0.480805 -0.00800432 -0.323401 0.820312
-0.427542 0.00862334 -0.595941 0.765625
0.377211 0.0291796 -0.487316 0.839844
0.208485 0.0315239 -0.507166 0.859375
0.565825 0.0294208 -0.262948 0.800781
-0.529567 -0.0239759 -0.336569 0.86849
-0.823995 -0.00365315 0.252648 0.757812
0.44495 0.019301 0.142975 0.811198
-0.191696 -0.067372 -0.0344601 0.957031
-0.115125 -0.057579 0.172174 0.933594
-0.53654 -0.0250434 -0.518636 0.808594
0.592828 0.0297927 -0.251174 0.851562
0.213037 -0.0243089 -0.776094 0.8125
0.313044 -0.000749602 0.0945978 0.867188
-0.028787 0.0286986 0.152375 0.940104
-0.0957763 0.0535471 -0.27209 0.8125
-0.110725 0.00213655 -0.571097 0.816406
0.339722 -0.00264461 -0.683412 0.832031
0.232086 -0.0400631 0.214309 0.904948
0.0637203 -0.0255879 -0.156946 0.910156
-0.0765725 -0.0272415 0.494201 0.757812
-0.0755341 -0.0124521 0.711876 0.789062
-0.616668 -0.000266947 0.00521145 0.777344
0.124292 0.0357242 0.272851 0.835938
-0.367773 0.0243364 -0.373953 0.796875
-0.483181 0.0310864 0.397401 0.855469
0.17574 -0.0154981 -0.484045 0.852865
-0.498011 -0.0266717 -0.0927802 0.914062
0.193406 0.0100878 0.236182 0.914062
0.373446 -0.0113769 -0.508287 0.813802
0.0664829 0.0230981 -0.563513 0.851562
-0.497853 -0.000227869 -0.311737 0.824219
0.124597 0.0149701 0.221174 0.867188
-0.515491 -0.037689 0.0500386 0.800781
-0.0471962 0.0170694 -0.329666 0.90625
0.0543915 0.0232918 -0.749428 0.846354
-0.411611 -0.00657435 -0.244623 0.910156
-0.150774 0.026623 -0.527393 0.808594
-0.639959 0.0246099 -0.499997 0.890625
-0.052236 -0.0232128 0.752445 0.78125
-0.315517 0.0157921 -0.547031 0.792969
0.0337078 0.0328699 -0.567741 0.886719
-0.410084 0.00292857 -0.135497 0.808594
-0.478639 -0.0323985 -0.406969 0.84375
-0.438799 -0.00980008 -0.229527 0.91276
0.554794 -0.0258659 -0.183175 0.871094
-0.0589598 0.0863768 -0.0680862 0.979167
0.420389 0.0170709 -0.736832 0.757812
-0.651411 -0.0284915 0.153765 0.808594
-0.0437708 0.033651 -0.193857 0.886719
-0.616397 0.000485473 -0.428585 0.78776
0.314161 0.0153863 0.00206915 0.785156
-0.528835 0.0263214 -0.549839 0.792969
-0.32215 0.0112535 -0.026731 0.761719
-0.189445 0.0515035 0.000938615 0.957031
0.0142087 0.0289607 0.328088 0.878906
-0.00325566 0.0679326 0.138755 0.871094
0.279642 0.00267971 -0.0265098 0.808594
0.291392 0.0154583 -0.281208 0.851562
-0.48579 -0.026325 0.455266 0.751302
-0.286596 0.0311902 0.339299 0.867188
0.33292 -0.00295353 0.453682 0.753906
-0.166923 0.0384696 -0.300235 0.845052
0.54897 0.0120788 -0.42466 0.855469
-0.433586 -0.00152579 -0.363387 0.824219
-0.174972 -0.0275718 0.207987 0.878906
0.0925012 -0.0018974 0.733282 0.80599
-0.411901 -0.0122455 -0.498042 0.832031
-0.32246 -0.0290142 -0.295501 0.859375
0.191274 -0.00748181 0.281338 0.898438
-0.123309 0.0516097 0.0766102 0.958333
-0.290895 -0.00289394 -0.00185904 0.925781
-0.0165616 0.00612679 -0.763207 0.838542
0.140507 -0.0355608 0.271148 0.871094
-0.337685 -0.0320043 0.424192 0.835938
0.372423 0.0113993 0.146242 0.902344
-0.193274 -0.0522533 0.00254784 0.941406
-0.502013 0.0112423 -0.160166 0.834635
-0.50107 -0.0106513 0.532639 0.757812
-0.424269 0.0281451 0.55946 0.832031
0.402966 -0.0220151 -0.489688 0.786458
-0.272176 0.00924095 -0.617136 0.856771
-0.408692 -0.0161032 0.560894 0.757812
-0.251114 -0.00300841 0.717475 0.78125
-0.379639 -0.0285961 -0.582058 0.828125
-0.177467 0.0212202 -0.372324 0.871094
0.0906569 -0.0588265 -0.209121 0.914062
0.0752031 0.015536 -0.759701 0.828125
-0.0189751 -0.00899516 0.524099 0.876302
-0.00235671 0.00893777 0.488555 0.757812
-0.187676 0.04367 0.0276591 0.947917
-0.467738 -0.0185345 0.595677 0.75
0.313074 0.0248501 0.0192147 0.753906
0.471736 0.000771862 0.0794397 0.901042
-0.199745 -0.0178529 -0.791474 0.855469
0.192849 0.00411219 -0.545647 0.855469
-0.44234 -0.022105 -0.307629 0.84375
0.550827 0.0193935 0.0697901 0.800781
0.300285 -0.00282627 -0.0626675 0.894531
0.0460637 -0.00439943 0.72263 0.761719
0.185374 0.0195122 0.695965 0.753906
0.139267 0.0272458 -0.326753 0.867188
-0.0744919 -0.00159821 -0.134154 0.9375
-0.496977 -0.0131621 0.502241 0.765625
0.461233 0.0354723 -0.0412803 0.871094
-0.119535 -0.068693 0.0391361 0.976562
-0.663723 0.0317152 -0.105232 0.747396
-0.139712 0.0204391 0.367902 0.796875
-0.131391 -0.00405227 0.731625 0.747396
-0.288305 -0.00192122 0.441673 0.796875
-0.417641 0.018339 -0.512848 0.828125
0.169459 -0.00960305 -0.0351106 0.936198
0.376123 -0.00201004 0.180765 0.859375
-0.419514 0.0038303 0.386126 0.878906
-0.401919 -0.00707901 -0.138021 0.856771
0.197841 0.0128739 0.49335 0.846354
-0.321006 -0.0235186 0.621687 0.839844
0.45907 0.00376386 -0.266499 0.871094
-0.162761 -0.0503615 0.1142 0.953125
-0.246593 0.0130091 -0.158017 0.835938
-0.60896 0.0305411 0.173097 0.847656
0.555511 -0.0129129 -0.227241 0.816406
0.349919 -0.03435 -0.0159704 0.765625
0.279389 -0.00972121 -0.189207 0.851562
-0.0580515 0.0727377 0.135798 0.929688
-0.176636 -0.0232866 -0.275633 0.828125
0.534823 0.0292426 -0.108978 0.910156
0.301484 -0.0047239 -0.241318 0.824219
-0.196506 0.0298904 -0.13763 0.777344
-0.394501 0.0271662 -0.269498 0.884115
0.232875 0.0133891 0.106719 0.764323
0.234082 -0.0268992 -0.539944 0.890625
-0.843374 -0.0207495 -0.294857 0.753906
0.376431 0.00537826 -0.326548 0.816406
-0.296603 -0.0266629 -0.00773208 0.886719
0.0714971 -0.0218554 0.00410577 0.957031
0.0126848 -0.0286272 -0.387945 0.875
0.466233 -0.0226246 0.156961 0.755208
-0.503421 0.01685 -0.0435448 0.878906
-0.393706 -0.0157878 -0.350406 0.863281
0.494278 0.00145342 0.0467187 0.871094
0.142612 -0.0615476 0.00185589 0.945312
-0.0761101 -0.0328768 -0.186139 0.902344
0.442731 -0.0294872 0.215618 0.796875
-0.0559848 -0.0310603 -0.495715 0.755208
0.160339 -0.0164827 -0.575226 0.851562
-0.112313 0.00249851 -0.0300711 0.980469
-0.343532 0.0188697 0.619428 0.835938
-0.107803 -0.0441175 -0.0254058 0.981771
-0.232198 0.0371851 0.094054 0.925781
-0.53399 -0.00958364 0.280745 0.886719
0.0426329 0.0265811 -0.454065 0.829427
-0.487743 -0.0224497 -0.0929693 0.886719
-0.450428 0.00804988 0.254266 0.804688
-0.289225 0.0128317 0.246991 0.773438
-0.244302 0.0523625 -0.0909509 0.859375
-0.0398817 -0.0669565 -0.192125 0.902344
-0.283062 0.0145696 0.203934 0.851562
-0.179564 -0.0157113 0.0324451 0.964844
-0.109336 0.0330202 0.554474 0.790365
-0.624816 -0.0155786 0.100258 0.777344
0.42288 0.0302151 -0.0411787 0.846354
0.321036 0.0327067 0.106575 0.914062
-0.152846 -0.0368962 0.442735 0.757812
0.223236 0.000420957 -0.132862 0.886719
-0.0116683 0.018341 -0.619115 0.890625
-0.0557726 -0.0301441 -0.0557501 0.984375
-0.577251 -0.00462147 0.393169 0.761719
0.213667 -0.0374521 0.222449 0.917969
0.488078 -0.00741871 -0.0271408 0.854167
-0.222689 0.0105548 -0.112227 0.878906
-0.438649 -0.00892995 0.624849 0.769531
0.394032 0.0323906 -0.419044 0.871094
0.01786 -0.027165 0.751557 0.839844
-0.43887 -0.0331997 0.229408 0.817708
0.201076 0.0201566 0.0704205 0.773438
0.0171324 -0.0781327 0.0741797 0.941406
-0.135252 5.78503e-05 -0.127765 0.941406
-0.417544 0.0192346 0.530917 0.791667
-0.612426 0.0187473 -0.50737 0.886719
-0.605579 -0.0161486 -0.51191 0.825521
0.015894 0.00671636 0.162053 0.832031
0.573819 0.0290133 -0.319978 0.828125
-0.438581 -0.03147 0.00280092 0.813802
0.206141 0.0263582 -0.102486 0.898438
0.357002 -0.0141587 0.598899 0.77474
-0.0242238 -0.0184301 -0.718208 0.77474
-0.57538 0.030848 -0.279388 0.761719
0.31279 -0.0408176 0.0425039 0.8125
0.431887 0.0243206 -0.190321 0.746094
0.286071 0.0306305 -0.186179 0.8125
-0.238283 -0.0210662 -0.609546 0.828125
0.284586 0.0131179 -0.419378 0.84375
0.297738 0.0160942 -0.122184 0.864583
-0.548796 0.0358202 -0.0771462 0.839844
0.521636 0.0197346 0.10389 0.757812
0.573219 -0.0335094 -0.130691 0.769531
-0.519708 -0.0167596 0.315961 0.894531
-0.0597832 0.000768926 -0.419908 0.796875
0.511814 -0.00343858 0.082798 0.78125
-0.274008 -0.0210301 -0.290918 0.863281
0.281197 -0.0276307 0.0347031 0.859375
0.134559 -0.00367972 -0.320869 0.863281
0.404781 -0.0193149 -0.28671 0.820312
0.606124 -0.0275999 0.279265 0.820312
-0.874916 0.0172611 -0.128545 0.757812
0.175079 -0.0460378 0.188797 0.925781
0.139989 0.0241991 -0.284974 0.890625
0.303441 0.0117369 0.208448 0.894531
-0.489696 -0.024837 0.41384 0.773438
-0.581756 0.019868 -0.488395 0.778646
-0.371048 0.011134 -0.510539 0.785156
0.151806 -0.0118251 0.547208 0.859375
-0.197982 9.21233e-05 -0.286578 0.855469
0.435276 0.0386038 -0.0126412 0.886719
0.131352 -0.0195837 0.0900776 0.890625
-0.17604 0.0153062 0.29964 0.854167
-0.0860195 0.000193642 0.254404 0.886719
0.497088 -0.0281925 -0.0570638 0.888021
-0.135469 0.0215564 -0.77805 0.777344
0.537188 0.025164 -0.447141 0.804688
0.544286 -0.000596748 -0.60342 0.765625
0.685541 -0.020023 0.174281 0.779948
-0.174848 -0.0014239 -0.603473 0.882812
0.127033 0.0146034 0.547979 0.861979
-0.535546 -0.0239778 0.355211 0.752604
-0.236728 0.0111812 0.45682 0.859375
0.157893 0.0286532 -0.364104 0.847656
0.399633 0.0175542 -0.142223 0.753906
-0.115694 0.0252954 -0.774987 0.84375
0.205366 0.0204595 -0.733857 0.845052
-0.338723 -0.0148579 -0.749291 0.766927
-0.247083 -0.0388478 0.0603013 0.88151
-0.355329 -0.018201 -0.139321 0.816406
0.386118 -0.00944252 0.468867 0.815104
-0.277553 -0.0304768 -0.474305 0.785156
-0.427109 -0.0200833 -0.573751 0.804688
-0.125724 -0.0552525 0.237954 0.867188
-0.0736978 0.017621 -0.468172 0.828125
-0.447144 -0.0195252 -0.763951 0.804688
0.181022 -0.0506303 -0.101974 0.917969
0.372034 0.0372311 0.157901 0.914062
-0.265985 0.0142796 -0.0759256 0.832031
0.0126872 0.00652403 -0.656489 0.832031
-0.0207991 -0.0285824 -0.217354 0.855469
0.278724 -0.0466013 0.170462 0.914062
0.305069 -0.0356751 -0.224144 0.796875
-0.42266 -0.0259111 -0.387442 0.769531
0.371633 0.00605162 0.611685 0.813802
0.265541 -0.0466065 0.173477 0.835938
-0.321299 -0.0105922 0.210666 0.8125
0.0344385 -0.0129996 -0.315415 0.902344
0.0740925 0.0618571 -0.182286 0.902344
-0.263729 0.0232339 0.727464 0.808594
0.412055 -0.0118505 -0.705391 0.786458
-0.180554 -0.00972297 -0.647671 0.782552
-0.382268 0.0039155 -0.217097 0.869792
-0.115147 0.0342649 -0.0458682 0.970052
0.362922 -0.0270553 -0.160453 0.769531
-0.162113 -0.0119557 -0.587422 0.816406
-0.0609915 0.0346332 -0.203849 0.904948
-0.284719 0.00192464 0.0481587 0.871094
0.324002 -0.0411905 0.217824 0.871094
0.117006 0.0401166 -0.183742 0.921875
0.436366 -0.0146474 -0.664553 0.809896
-0.439925 -0.0198592 -0.750067 0.75
0.595881 -0.0271505 -0.380325 0.792969
-0.0224685 -0.00305735 -0.0493711 0.973958
-0.138246 0.00111702 -0.799149 0.854167
-0.0482147 0.0364303 -0.0118384 0.988281
0.419617 -0.0206911 -0.364799 0.875
-0.126358 0.0396505 -0.00735988 0.976562
0.0185418 0.0336008 0.226399 0.929688
0.315881 0.0278034 -0.493828 0.886719
-0.0679892 0.0234609 0.374039 0.800781
-0.404953 -0.0266919 -0.146604 0.882812
0.0890651 0.0378209 -0.440745 0.824219
-0.189909 -0.0231251 0.443282 0.851562
-0.152309 0.0195232 -0.0241097 0.957031
0.0304388 0.0325383 0.152011 0.928385
0.515638 -0.013354 -0.114217 0.916667
-0.377087 0.0124159 0.0892096 0.804688
0.183646 -0.0234306 -0.167306 0.903646
0.626807 0.0214824 -0.245165 0.851562
0.129596 0.00612145 -0.218819 0.90625
0.111735 -0.0604167 -0.038383 0.953125
0.40737 0.0377698 -0.193453 0.776042
-0.17471 -0.0248137 -0.143722 0.902344
0.25004 -0.0334721 0.223182 0.859375
0.789209 0.0205786 -0.342762 0.75
-0.0439758 0.0137685 0.0818675 0.933594
0.49965 -0.0212379 0.414187 0.766927
-0.064483 0.0254289 -0.451815 0.794271
0.172532 -0.00083446 -0.602646 0.833333
0.557108 -0.016756 0.291887 0.746094
0.127905 -0.0152551 -0.464831 0.753906
0.558548 -0.0240789 -0.278389 0.824219
0.299824 0.00448818 -0.721857 0.804688
0.40373 0.00894158 -0.378663 0.824219
-0.497328 -0.0116068 -0.388221 0.746094
0.166365 -0.0101012 0.160821 0.834635
0.588966 0.0233067 -0.313475 0.832031
-0.0529179 0.0197923 0.309698 0.85026
0.232498 -0.0333831 0.573105 0.755208
-0.505788 -0.0114676 0.104502 0.839844
0.330179 0.0235086 0.474104 0.785156
0.285182 0.0219836 -0.441876 0.871094
0.355426 -0.0245212 0.21981 0.854167
-0.0161734 0.0196512 0.579679 0.8125
0.500617 -0.0166833 -0.0468505 0.886719
-0.000545236 0.0347072 -0.121746 0.941406
0.350242 -0.0321697 0.0676187 0.863281
-0.3924 -0.025084 -0.125141 0.839844
-0.0111991 -0.0326459 -0.343539 0.902344
0.045747 0.0353887 -0.326484 0.889323
-0.318903 -0.0168196 -0.421411 0.773438
-0.605815 -0.0239224 0.344405 0.777344
-0.21734 0.0373364 0.0879323 0.867188
-0.0396458 -0.020169 -0.424054 0.84375
-0.00399264 0.0263232 0.358804 0.796875
-0.456184 0.00857035 -0.751833 0.83724
-0.218496 -0.0024689 -0.443011 0.828125
-0.74694 -0.0100265 -0.319567 0.81901
-0.123089 0.0188986 -0.734237 0.751302
-0.138656 0.0375188 -0.312764 0.859375
-0.214107 0.0387517 0.299244 0.867188
0.163302 0.0324755 -0.343343 0.871094
-0.181582 -0.0182217 0.291734 0.878906
-0.188308 0.00707292 -0.447403 0.816406
-0.399638 0.0297437 -0.0937871 0.764323
-0.28591 0.00853731 0.0668036 0.875
-0.547331 -0.000634531 0.14381 0.876302
0.0487074 0.0243178 0.291532 0.855469
0.576864 -0.0208876 -0.379419 0.847656
0.472138 -0.0151331 -0.144991 0.90625
-0.173984 -0.00706812 0.741167 0.765625
0.0910529 -0.010322 0.0360789 0.954427
-0.67295 0.007641 0.13545 0.785156
-0.343524 0.00154647 -0.361311 0.795573
-0.0200134 0.00871565 -0.591409 0.863281
-0.44381 0.032715 -0.417432 0.828125
0.237241 0.0331628 -0.462023 0.863281
-0.231257 0.0023055 0.41442 0.851562
-0.54895 0.0199849 0.083534 0.822917
0.561148 0.00909604 -0.304816 0.78125
-0.558807 0.00921315 -0.217416 0.798177
0.557227 -0.0201507 -0.416056 0.859375
0.0822101 -0.00243549 0.468705 0.765625
-0.244004 0.0390834 -0.278457 0.847656
0.12058 0.0322712 0.537341 0.832031
0.133484 -0.0474309 0.186609 0.910156
0.111755 0.022405 0.51724 0.800781
0.0747344 -0.0132742 0.500225 0.83724
0.591638 0.0290636 -0.353901 0.785156
-0.418959 -0.00703713 0.581359 0.783854
0.164017 -0.0507544 0.185128 0.91276
0.109058 -0.0151238 -0.716834 0.820312
0.0898232 -0.0526395 -0.220794 0.914062
0.590661 0.0277557 0.294938 0.765625
0.364671 -0.0161053 0.471319 0.747396
0.409339 -0.0165666 0.42067 0.75651
-0.298734 -0.0383023 0.199352 0.825521
0.787446 0.00100291 -0.333329 0.757812
-0.612099 0.00888341 -0.534936 0.746094
-0.285346 0.0139374 -0.66873 0.765625
-0.132471 -0.0183842 -0.718974 0.795573
0.706358 0.00406662 0.176406 0.760417
0.124509 0.00830358 -0.706941 0.839844
0.12992 0.00427068 -0.583633 0.878906
0.49685 0.0313134 -0.247752 0.84375
0.21941 0.013173 0.559184 0.78125
0.203751 -0.0240718 -0.0915432 0.894531
0.294852 -0.000744053 0.198946 0.910156
-0.656225 -0.0116137 -0.0306138 0.752604
0.0992546 0.00275821 -0.636014 0.84375
-0.437292 -0.0172791 -0.532454 0.795573
0.20438 -0.0254627 0.511946 0.882812
-0.737639 0.0196092 -0.33749 0.84375
0.318587 -0.0246686 0.290797 0.800781
-0.358886 0.0300661 0.308175 0.847656
-0.20238 0.0257294 0.749963 0.778646
-0.641131 0.0120561 -0.0609696 0.782552
0.0382133 -0.0340144 0.187514 0.865885
0.513106 0.024023 -0.33083 0.832031
-0.126194 -0.00258645 -0.623169 0.851562
0.305503 0.0405672 0.158664 0.91276
-0.444357 -0.0173203 -0.349002 0.8125
-0.219317 0.0239165 -0.00422241 0.923177
0.267055 0.00667657 -0.406259 0.839844
-0.076239 -0.0294779 -0.364056 0.839844
0.11384 0.0062098 -0.762079 0.785156
-0.165273 -0.0291997 -0.440346 0.804688
0.0799757 -0.0164184 0.278716 0.859375
-0.430589 -0.00742676 -0.484021 0.804688
-0.504935 -0.0110382 -0.572911 0.867188
-0.485364 0.0131953 0.295082 0.871094
-0.13936 -0.0273626 0.736925 0.753906
-0.210593 0.0268916 -0.0532491 0.925781
-0.347485 0.00455097 -0.643353 0.769531
-0.347503 0.0140354 -0.307344 0.867188
0.31037 0.026189 -0.735281 0.777344
-0.0224119 0.0124608 -0.805503 0.753906
