0.328971 0.00112194 -0.204916 0.633333
-0.165617 -0.000776594 0.189209 0.729412
0.404064 0.000157658 0.276701 0.631373
0.12655 -0.0011776 -0.398607 0.796078
0.118279 -0.00125356 0.360076 0.601961
-0.0736268 -0.00288683 -0.388215 0.659804
-0.235919 -0.00213587 0.282047 0.709804
0.457588 0.00155621 0.180828 0.772549
-0.242876 0.00277543 0.324398 0.682353
-0.00753698 0.00414109 -0.294756 0.578431
-0.167553 0.00179771 -0.0923966 0.686275
0.0476564 0.00221852 -0.271052 0.621569
0.343684 -0.000133147 -0.385458 0.705882
0.0736819 -0.00103411 -0.343291 0.756863
-0.276192 0.00423849 0.0198744 0.670588
-0.0378676 0.00326406 0.406186 0.558824
-0.0302916 0.00154706 0.389771 0.592157
-0.22703 0.0096579 0.0365708 0.666667
-0.280178 0.00064909 -0.438676 0.72549
0.127884 0.0297406 -0.1158 0.755637
-0.236623 -0.003832 0.139185 0.666667
0.0827086 0.000933495 -0.399453 0.737255
0.0194612 -0.00941537 -0.254029 0.666667
-0.125888 -0.0303857 0.151211 0.776471
-0.196487 0.000788557 0.417387 0.704902
0.303029 0.00442683 -0.0291649 0.709804
-0.369803 -0.00506396 0.109166 0.678431
0.0371425 0.0144091 0.217721 0.796078
0.106692 0.00743232 0.161606 0.776471
0.0262494 -0.022253 0.0621247 0.713726
-0.143578 0.00574425 0.33647 0.709804
0.347096 -0.000592563 0.221556 0.67451
-0.00974082 0.0310519 -0.136807 0.791912
0.649576 -2.02206e-06 0.0280458 0.639216
0.0854132 0.000366455 0.508115 0.654902
-0.272528 -0.00763781 0.263772 0.72549
-0.120131 -0.000501778 0.472659 0.607843
-0.388611 0.000152506 -0.247222 0.614706
-0.295396 -0.00121474 0.342793 0.62549
0.0383009 0.00563559 -0.271413 0.658824
-0.240955 0.00662201 0.132949 0.678431
-0.10995 -0.00985315 -0.204497 0.682353
0.037564 0.0116331 0.0739684 0.818627
0.254338 0.00519308 -0.188067 0.666667
0.537533 0.000315526 0.128454 0.854902
-0.013748 0.00458811 -0.379778 0.579412
0.258994 0.000124991 -0.381035 0.756618
-0.324106 0.00303009 0.234522 0.764706
-0.264758 -0.00122407 -0.276513 0.62549
-0.0451999 -0.0354433 -0.0329568 0.884804
-0.515485 -0.000408386 0.113 0.638235
0.0189868 -0.0147334 -0.259275 0.72549
-0.2312 -0.000559464 -0.370157 0.639216
-0.213536 -0.00145611 0.416119 0.623529
-0.00751445 0.00328535 0.274752 0.607843
-0.0372479 -0.0296637 0.132844 0.796078
-0.234834 0.00572138 -0.139396 0.756863
0.532675 -2.13297e-05 -0.304006 0.647059
0.529854 1.84271e-05 0.00300545 0.807843
-0.153309 0.00204214 -0.360718 0.639216
-0.0357235 -0.00482218 0.302772 0.629412
0.151402 -0.000310253 0.499247 0.723529
0.224823 -0.00957567 -0.129775 0.732598
0.0524749 -0.0182887 0.00347874 0.973529
0.0369886 -0.00227033 0.441379 0.588235
0.451275 -8.40589e-05 0.403973 0.631373
-0.0707409 -0.000536064 -0.41174 0.607843
0.469169 0.000166916 0.300835 0.709804
-0.353413 0.000222017 0.330067 0.627451
0.119371 -0.0143543 -0.0505155 0.785294
-0.305438 0.00795711 0.113797 0.745098
-0.54241 -0.000505965 -0.225529 0.729412
-0.0235851 0.000796144 -0.414919 0.613725
0.239592 -0.00483673 0.15017 0.784314
0.215549 0.0115518 0.133488 0.768627
-0.247389 0.000734251 0.395928 0.666667
-0.276487 -0.00505657 0.28936 0.721569
0.364464 0.00432047 -0.148538 0.718627
0.104517 -0.0183291 -0.227389 0.74902
-0.395424 0.00141333 0.34959 0.756863
-0.0830218 -0.00544215 0.229218 0.72549
-0.356924 0.00172681 0.169141 0.815686
0.321988 0.00987351 -0.114358 0.631373
0.101538 -0.00381554 -0.250662 0.65098
0.274881 0.00578916 0.0325929 0.807843
0.11958 0.00213434 0.139883 0.658824
0.206236 -0.0153006 0.0275348 0.698039
0.027788 0.00877348 0.281719 0.568627
0.519913 0.000135876 0.36851 0.690196
-0.527271 -7.19434e-06 -0.123542 0.67451
-0.348517 -0.00099874 0.0257345 0.686275
0.123537 -0.00168389 -0.438024 0.615686
0.518885 -0.000413301 0.148684 0.751961
-0.251461 0.00155056 -0.212213 0.682353
0.0561642 -0.00274437 0.30934 0.67451
-0.311246 -0.00295909 -0.249773 0.691176
0.134384 0.00918151 0.054998 0.686275
0.246451 -0.00585259 -0.148594 0.682721
-0.100381 0.00988607 -0.204745 0.713726
0.287329 -0.0027493 -0.0330631 0.762745
-0.559511 0.000296858 0.00462621 0.634804
-0.085217 -0.00422131 -0.11275 0.592157
0.371381 -0.00552231 0.181751 0.564706
0.183045 -0.000295261 0.494142 0.55049
0.0925022 -0.000704415 0.516223 0.623529
-0.430052 -0.000447712 -0.392843 0.682353
-0.0438121 -0.0217456 -0.124377 0.572549
0.190851 0.000691351 -0.515715 0.764706
0.160877 0.00978649 0.189825 0.772549
0.508538 0.000150756 -0.33652 0.603922
-0.107751 0.000378991 0.467128 0.562745
0.116738 -0.00698855 0.00665732 0.847059
-0.247266 -0.000741969 0.402293 0.756863
0.0496745 0.000496966 0.458562 0.666667
0.302935 0.000143253 0.385629 0.739216
0.0499265 0.00263688 0.414009 0.678431
-0.360819 0.00351286 -0.0108812 0.729412
0.409238 -0.00228718 0.0905341 0.698039
-0.0378726 0.00337248 0.250756 0.756863
-0.263092 0.00439171 0.240264 0.709804
-0.511199 -0.000172677 0.0816383 0.627451
0.595058 -5.26355e-05 0.0258449 0.803922
0.101198 0.000561441 0.515293 0.608824
0.295349 -0.00130387 -0.347286 0.772549
0.47977 -0.000183722 0.331389 0.717647
0.50344 1.86614e-05 -0.338256 0.643137
-0.27749 -0.00205118 -0.283061 0.627451
0.255644 0.000207112 0.455889 0.780392
-0.361475 0.000107708 -0.345 0.694118
-0.159882 0.00113555 -0.32279 0.72549
0.376136 -0.00160231 -0.177709 0.709804
-0.625866 -2.62269e-05 0.282176 0.603922
0.218668 -0.0229263 0.177184 0.776471
0.222138 -0.000302373 0.501577 0.656863
0.189174 0.000965695 -0.458736 0.580392
-0.289266 0.000599686 -0.481521 0.662745
-0.221474 0.00260869 0.309078 0.619608
-0.0722093 0.00367962 0.252711 0.592157
0.375325 -0.000616558 -0.367956 0.658824
0.07888 -0.00479606 0.159845 0.764706
0.28453 -0.000558085 -0.422655 0.65098
0.508132 -0.000169649 -0.11661 0.698039
0.324026 0.00472158 -0.0730672 0.723529
0.0160941 -0.00744014 -0.195264 0.776471
0.511687 3.58621e-05 -0.286325 0.686275
-0.218568 0.00777859 -0.209011 0.731373
-0.100595 0.0302043 0.00595484 0.67549
0.407069 0.00083265 -0.111315 0.659804
0.500639 0.00053737 0.037537 0.792157
-0.0720086 -0.000777901 -0.324802 0.768627
0.353878 -0.00384237 0.0371335 0.796078
0.219728 -0.000202717 0.399628 0.690196
0.373947 -6.6039e-05 -0.372964 0.698039
-0.141054 -0.000233812 0.529976 0.615686
0.0276703 -0.0165421 0.0900499 0.698039
0.342285 0.000305952 0.431879 0.728431
-0.118518 -0.00518155 0.121389 0.658824
-0.126819 -0.00454192 -0.237007 0.592157
0.139387 0.0286707 0.0781159 0.729412
0.160124 -0.0296796 -0.0373939 0.772549
-0.171962 0.0109991 0.0867417 0.768627
0.565592 2.52265e-05 0.00503626 0.705882
0.299471 0.0121021 0.140535 0.784314
0.442395 -6.79766e-05 0.388331 0.795098
-0.218982 -0.00268819 -0.318432 0.686275
0.061184 0.00665355 0.271274 0.666667
0.0628141 -0.0103384 -0.207313 0.72549
0.166236 -0.0011799 0.312342 0.639216
-0.115308 0.0103762 0.238958 0.647059
-0.25636 -0.0028483 -0.304389 0.658824
-0.256584 -0.00121124 -0.450989 0.690196
0.0703021 0.01646 0.160569 0.760784
0.301916 0.00191097 -0.36078 0.698039
-0.372864 0.000324201 -0.455328 0.678431
0.611392 -0.000131495 0.134858 0.768627
0.518029 -0.00024849 -0.248083 0.588235
0.484292 -8.43813e-05 0.300405 0.619608
0.484108 0.000195999 -0.280961 0.721569
-0.262238 1.10365e-06 -0.294133 0.67451
-0.621975 0.000235194 -0.112831 0.623529
-0.363291 0.0011158 0.165338 0.756863
0.318697 -0.0030249 0.0124028 0.741667
0.357117 -0.0016235 0.197341 0.729412
-0.328604 0.000970417 0.263239 0.612745
-0.317545 -0.00380815 0.0980275 0.690196
0.0653139 -0.00727974 0.0599596 0.766422
-0.308587 0.0025516 0.118564 0.639216
-0.619134 -2.23723e-06 0.309972 0.584314
0.319926 -0.00181805 -0.118383 0.690196
0.264275 0.00353994 -0.169791 0.792157
0.237632 -0.0024017 -0.326519 0.756863
-0.154544 0.00298672 0.277192 0.666667
0.114339 0.00367105 -0.344175 0.815686
-0.295867 0.000357292 -0.365354 0.690196
-0.400767 -0.00156672 0.279427 0.730147
0.492607 -0.000155436 -0.0549564 0.664706
-0.252442 0.00708076 0.152263 0.729412
0.394672 -0.000463607 -0.386862 0.8
-0.225808 -0.00224547 -0.260715 0.652941
-0.355026 -0.000931016 0.242643 0.719608
-0.257621 -0.0001421 0.325052 0.670588
0.0253783 0.000451584 -0.520419 0.686275
0.112786 0.007609 0.315906 0.615686
-0.0620782 0.00144061 0.453636 0.741176
-0.0491769 0.019039 -0.0526383 0.843137
-0.232704 -0.00260819 0.320685 0.694118
-0.253067 0.00160144 0.329491 0.609804
0.584081 6.67101e-05 -0.2261 0.635294
-0.101099 0.0178835 0.171547 0.776471
0.416396 -0.000827412 -0.289892 0.694118
-0.150335 0.00164791 0.378197 0.698039
0.254641 -0.000899854 0.415623 0.588235
-0.237225 0.000774474 0.368326 0.69951
-0.0281267 -0.00230574 0.426568 0.552941
0.152155 0.00039948 0.424416 0.647059
-0.51745 -0.000324454 -0.146867 0.635294
-0.386595 -7.98323e-05 0.213146 0.780392
0.18484 -0.0010186 0.0877294 0.75
0.335195 -0.00606387 -0.076101 0.609069
-0.369691 -0.00131228 0.15979 0.837255
0.00150893 0.0018492 -0.437981 0.729412
0.557447 6.36998e-05 -0.206481 0.619608
0.125603 0.000897023 -0.472218 0.671569
0.224477 0.00195183 0.309451 0.631373
-0.281324 -0.000540939 0.39377 0.623529
-0.169024 0.00921178 -0.318064 0.554657
-0.0305843 0.0157707 0.103569 0.764706
-0.266402 0.000653614 0.481996 0.559743
0.429058 0.000204404 0.361603 0.564706
-0.45253 6.47513e-05 -0.250611 0.694118
0.467095 5.44886e-05 -0.104615 0.721569
-0.279203 0.000522972 0.163055 0.709804
0.468584 0.000103957 0.031816 0.717647
-0.387959 -0.00102119 0.172467 0.815686
0.00672795 0.0192353 0.0622225 0.968627
-0.221705 0.00140515 -0.13401 0.756863
0.301198 0.00110964 -0.342317 0.623529
-0.374963 -0.00303682 0.00877907 0.713726
-0.269234 0.0044981 0.238296 0.756863
0.044866 -0.0184291 0.13524 0.745098
0.385353 5.26187e-05 0.402543 0.666667
0.287965 0.00379821 -0.147282 0.690196
0.347586 0.00119436 0.29418 0.713726
0.610263 0.000170142 -0.130791 0.631373
-0.106191 -0.00370921 0.349651 0.596078
-0.375113 0.00118076 0.342557 0.667647
-0.323662 -0.00158881 0.258576 0.690196
-0.26129 -0.00559342 0.0875844 0.709804
0.546019 -5.12512e-06 -0.331664 0.657843
-0.0256774 0.000770605 -0.525228 0.690196
0.2634 0.00239367 0.107944 0.739216
-0.379458 0.00168504 0.13239 0.784314
-0.118371 0.00135391 0.370183 0.619608
0.53476 2.08354e-05 0.280931 0.717647
0.0251526 -0.010489 -0.304541 0.698039
-0.172719 -0.00163015 -0.435537 0.588235
-0.226153 -0.00123858 0.362754 0.721569
-0.351298 -0.000669343 -0.000944395 0.582353
0.0617086 -0.0250629 0.0488821 0.780392
-0.508394 -0.000139335 -0.115389 0.584314
-0.223753 -0.00338213 0.241405 0.639216
-0.354714 -0.00202541 -0.355138 0.603922
-0.103345 -0.00030137 -0.528968 0.694118
0.00813937 -0.000310968 -0.312988 0.744118
0.25147 -0.000735191 0.0663441 0.745098
0.106258 -0.000778551 0.499495 0.737255
-0.265927 -0.00497923 -0.157063 0.733333
-0.195136 0.0011868 0.416073 0.639216
-0.30061 0.00379027 0.19025 0.658824
-0.0623011 0.00189977 0.330363 0.624939
0.359828 0.00342311 -0.0740715 0.713726
-0.20304 -0.00462573 0.365186 0.556863
0.263382 -2.24434e-05 -0.449759 0.6
0.0597802 -0.00154419 -0.407631 0.654902
-0.181816 0.000375675 0.415668 0.654902
0.103416 0.00949603 0.19033 0.745098
0.0378488 1.06967e-05 0.49238 0.686275
0.528402 -0.000513765 -0.0484885 0.617586
0.21013 0.00531898 0.0418427 0.698039
0.172597 0.000429518 0.285568 0.647059
-0.0154073 0.00815357 -0.153965 0.768627
0.154688 0.00200216 -0.344591 0.843137
-0.242602 -0.0097937 -0.0937871 0.658824
0.253298 0.000603915 0.34831 0.672549
0.129998 0.00388297 -0.326082 0.666667
-0.401321 -0.00173909 -0.213253 0.572549
-0.280708 0.0102792 -0.166234 0.72549
0.282956 0.00369399 -0.120929 0.552941
0.00754813 -0.00244791 -0.379422 0.663725
-0.134779 -0.0135909 -0.19142 0.741176
-0.593917 -0.000143734 -0.0491403 0.592157
0.513936 -0.000238327 -0.0927551 0.607843
-0.197405 -0.00190928 -0.438586 0.694118
-0.0338065 0.0326658 0.18001 0.796078
0.0114683 4.38122e-05 -0.47715 0.647059
0.0540735 -0.00452223 -0.0275348 0.976471
-0.383863 0.000230948 -0.319703 0.627451
-0.46029 0.000562626 -0.305981 0.713726
-0.306947 -0.00103911 0.154273 0.745098
0.414273 -0.00289658 0.0408769 0.796078
0.452735 -0.00133682 0.299644 0.733333
0.558287 -0.000325185 -0.133115 0.678431
-0.231676 -0.000426497 0.504246 0.709804
0.291655 0.000481794 -0.452405 0.663725
0.262286 -0.00128544 -0.0542149 0.610784
-0.233648 0.00152313 0.352089 0.615686
-0.416084 -0.000630496 0.125124 0.721569
-0.307419 0.000314607 -0.356827 0.682353
-0.115835 -0.0330819 0.135988 0.768627
0.237384 0.0059199 0.221613 0.768627
0.554694 4.14536e-05 -0.150971 0.670588
0.452613 1.35097e-05 0.307068 0.811765
-0.432977 0.000294509 -0.0858234 0.553922
0.271101 0.000216428 -0.41096 0.643137
-0.0841594 -0.00521247 0.1808 0.592157
-0.510079 -0.0001583 -0.166671 0.713726
-0.447779 -0.000126339 -0.166846 0.649265
0.0208553 0.00217472 0.420074 0.627451
-0.0273232 0.00051379 -0.411716 0.647059
-0.4874 0.000102618 -0.104064 0.686275
0.329604 0.00229833 -0.0978468 0.635294
-0.314442 0.000584613 0.19977 0.764706
0.0277981 0.00263388 -0.434467 0.632353
-0.558793 -0.000239882 0.0933328 0.572549
-0.297941 -0.00316364 0.282242 0.644118
0.286739 0.0014338 -0.139131 0.709804
0.13628 0.0095612 -0.106161 0.756863
-0.189045 -0.00443184 0.363388 0.627451
-0.298111 -0.00510787 -0.0483876 0.670588
0.322459 0.00285561 0.279812 0.713726
-0.295071 0.00445235 -0.0695422 0.713726
0.538627 4.97475e-06 -0.082417 0.619608
-0.252274 0.00338821 0.0850616 0.697059
0.199221 -0.00776618 -0.0643304 0.713726
0.0183958 0.00132604 0.380975 0.576471
-0.517266 0.00015969 0.235444 0.616667
0.462124 0.000624102 0.276385 0.72549
0.339871 -0.0089721 0.0731999 0.764706
0.445732 0.000615766 0.2937 0.681373
0.212308 -0.00628165 0.0594232 0.627451
-0.0903828 0.00168304 -0.495893 0.580392
0.0682181 0.0348306 -0.10726 0.780392
0.130743 0.00342436 -0.344041 0.807843
0.488314 4.47015e-05 -0.373084 0.682353
-0.347363 0.000783897 0.286793 0.731373
-0.427882 0.000582096 0.280427 0.67549
0.107717 0.000206549 -0.465186 0.582353
0.0344053 0.0115798 -0.18014 0.678431
-0.0044788 -0.0372831 -0.0981682 0.870588
0.150669 0.00623864 0.290153 0.663725
-0.489537 -0.000849234 -0.292028 0.713726
-0.0851112 -0.00216168 0.196748 0.726471
0.36889 0.000236703 0.39847 0.67451
-0.329568 -0.000733214 0.29637 0.670588
0.421626 -0.00185585 -0.21378 0.619608
-0.222784 0.0014004 -0.329803 0.654902
-0.264182 0.000483411 0.437003 0.643137
0.0216907 0.0018058 -0.313126 0.654902
-0.0382248 0.00272379 -0.298894 0.690196
0.337481 3.98891e-05 -0.328452 0.811765
0.00370493 0.00970602 0.182343 0.756863
0.273249 -0.000591349 -0.394729 0.827451
0.181966 -0.0213007 -0.0478232 0.764706
-0.115117 -0.00956859 -0.0447129 0.584314
0.0657136 0.00147567 0.417794 0.603922
-0.272796 0.00530896 0.221454 0.709804
-0.131816 0.000250745 -0.37351 0.733333
0.441143 -0.000316195 0.157509 0.62451
-0.0621725 -0.00829115 0.0928365 0.798039
-0.000924777 0.00127725 -0.471009 0.694118
-0.319666 0.00259311 0.381869 0.630392
0.00989853 -0.00203241 0.354866 0.631373
-0.36554 0.000541825 -0.263251 0.733333
0.0665327 -0.00819972 0.0913586 0.772549
-0.324212 0.00385236 0.0215308 0.717647
-0.0941914 -0.00391411 0.258523 0.682353
-0.0170841 0.000186469 -0.407459 0.654902
0.0534246 -0.000888647 0.400056 0.654902
-0.00564941 0.0362162 0.048777 0.643137
-0.194179 0.00100128 0.424433 0.627451
-0.203871 -0.000754255 0.396169 0.721569
0.509515 -2.63664e-05 -0.392397 0.568627
-0.08911 0.00324204 0.330748 0.695098
-0.317063 0.00110696 0.314618 0.670588
0.502455 -3.76093e-05 0.123254 0.705882
0.078402 -0.0122603 0.18677 0.772549
0.305038 -0.00041782 0.273022 0.678431
-0.260037 0.00124973 -0.27305 0.552941
0.516641 -0.0010494 0.0563538 0.625735
0.170889 -0.000710686 -0.464017 0.776471
-0.501661 -0.000168971 0.219468 0.576471
-0.0441572 0.000540053 0.493138 0.735294
0.483788 0.000725432 0.210768 0.690196
-0.0127968 0.00396317 0.281658 0.619608
-0.31787 -0.00062272 0.350569 0.631373
-0.0653687 -0.00695374 0.143659 0.776471
-0.278245 -0.000226248 0.442516 0.6
-0.37541 0.00212187 0.255115 0.71152
-0.0712675 -0.0178752 -0.226619 0.741176
-0.566651 -7.12737e-05 0.285888 0.643137
-0.101102 -0.00205078 -0.0308651 0.780392
-0.273045 0.00208031 -0.214177 0.596078
-0.22152 0.0218448 0.0853754 0.717647
0.0180033 -0.00107237 0.493856 0.605882
-0.0543036 0.000397002 -0.428825 0.671569
0.273204 -0.00109444 0.0518255 0.768627
-0.207051 -0.000319919 -0.30389 0.651961
0.162889 -0.00115824 0.500374 0.666667
-0.388379 0.000398196 0.240753 0.596078
0.414544 -0.00406098 -0.0725285 0.679412
-0.0846628 0.0426677 -0.0938338 0.803922
-0.154509 -0.0109727 -0.23583 0.666667
-0.207122 0.00688605 0.293928 0.733333
-0.17895 -0.027843 -0.0259299 0.771569
0.166946 -0.00823371 0.2116 0.776471
0.0630009 -0.0317979 0.0935446 0.756863
-0.0502033 -0.000216675 0.548526 0.643137
-0.521832 0.000206263 -0.271697 0.721569
0.59092 -0.000159993 0.0573407 0.815686
0.119496 0.000895405 -0.495744 0.796078
0.200734 0.00399798 -0.242032 0.592157
-0.240236 0.000424196 0.363576 0.592157
-0.173001 0.00763858 0.275128 0.705882
0.331131 0.00115031 0.247376 0.592157
-0.238299 0.00558683 0.204541 0.721569
-0.424772 0.000690158 0.087612 0.743873
0.0314276 -0.0190341 -0.00954626 0.843137
-0.0609521 0.00550283 -0.196665 0.717647
0.242263 4.96178e-05 -0.429788 0.752941
-0.0264953 0.0411173 -0.0473907 0.815686
0.236478 0.000827769 0.245606 0.572549
0.25306 0.0131479 0.172194 0.729412
0.207189 -0.00144073 -0.409427 0.588235
0.351318 -0.0011961 -0.160292 0.647059
0.0324984 0.0125428 -0.0949378 0.776471
0.12648 0.00195819 0.431696 0.654902
-0.0754522 0.0108178 -0.203671 0.714706
-0.20293 0.00441963 -0.161005 0.741176
-0.102999 0.0376322 0.0856172 0.839216
-0.310458 -0.000416851 -0.369127 0.717647
-0.00786625 -0.000403239 -0.46516 0.607843
-0.314127 -0.00518045 0.117562 0.667647
0.175624 -0.0173578 0.113374 0.760784
0.170666 -0.00994304 0.154228 0.569853
-0.205826 -0.000543218 -0.364749 0.728431
-0.174949 0.00642798 -0.12052 0.721569
0.34847 -0.00424762 -0.0594379 0.682353
-0.294701 -0.000318394 0.363042 0.603922
-0.249042 -0.0156354 0.00293081 0.635294
-0.0471918 0.00144586 -0.466395 0.584314
0.278938 -0.00652795 0.0394404 0.782108
-0.375571 0.0040249 0.145113 0.678431
0.576148 -3.49862e-05 0.190157 0.842402
-0.0915889 0.00127208 0.45647 0.568627
0.145893 0.0170668 0.0165027 0.589216
0.390142 -0.00307293 -0.0819184 0.588235
0.125473 0.00380137 -0.125039 0.772549
-0.0573987 0.027128 -0.00319532 0.910784
-0.085028 0.0254533 -0.0718009 0.721569
0.173499 -0.0288784 -0.0343566 0.767647
0.122892 0.00635962 -0.349668 0.827451
0.399484 0.00386499 -0.0700604 0.635294
0.0345961 -0.0372396 -0.040506 0.988235
0.167488 -0.0159853 0.090832 0.717647
0.350549 0.00296988 0.0154647 0.72549
0.452068 -0.000402638 0.20819 0.717647
-0.108607 0.0123289 -0.202802 0.698039
0.164755 0.000202875 0.528776 0.690196
-0.0747563 0.00329937 -0.370304 0.709804
0.279429 0.00587963 -0.189206 0.692157
-0.22835 -0.00252249 0.341388 0.6
-0.123659 -0.00436352 -0.261394 0.756863
0.159769 -0.0228691 -0.0888415 0.737255
-0.0825345 -0.000748194 0.196296 0.705637
0.288707 -0.00739644 -0.146408 0.682353
-0.0748386 0.0128329 -0.237859 0.704902
-0.239538 -0.0106797 0.187773 0.729412
-0.0835372 -0.00668456 -0.172431 0.677451
-0.145641 0.00595339 0.262432 0.733333
-0.0908775 -0.000146077 0.542327 0.658824
0.315705 -0.000198148 0.027592 0.769608
-0.153181 0.0139664 -0.152368 0.639216
-0.279477 0.00285419 -0.349734 0.639216
0.249059 0.0143292 0.0293779 0.730392
0.0289793 0.00696039 0.174052 0.756863
-0.368068 0.000216993 0.368704 0.694118
0.553324 -0.000137159 0.0208426 0.847059
0.14099 0.00631068 0.329363 0.647059
-0.257906 -0.00797828 -0.227536 0.670588
0.143935 -0.00303117 0.0169631 0.745098
0.37607 0.00601471 -0.00917551 0.754902
-0.28017 0.00242667 -0.305735 0.658824
-0.248134 0.000254478 -0.391252 0.639216
0.286102 -0.00468421 -0.161439 0.684314
0.363144 -0.00273591 -0.211706 0.635294
-0.281712 -0.00642199 0.227031 0.709804
-0.36125 0.00144088 0.369141 0.607843
0.49945 0.000673743 -0.108214 0.607843
-0.207379 -0.0122531 -0.104468 0.713726
0.0243916 0.000125949 0.516605 0.588235
0.29007 -0.00021392 -0.47504 0.807843
0.0387501 -0.00056335 -0.436147 0.705882
-0.551822 0.000418465 -0.115893 0.678431
-0.118156 -0.0102974 0.0835271 0.592157
-0.0819773 -0.0122166 -0.0607904 0.980392
0.0150351 0.0273191 0.104743 0.717647
-0.0602788 0.0114897 0.00291536 0.85098
-0.156615 0.0251736 0.0900002 0.643137
-0.430083 0.00115988 -0.121346 0.564706
0.205967 -0.025636 -0.107603 0.740196
-0.567425 -0.000308104 0.00987223 0.658824
0.313386 0.00119538 0.18406 0.615686
0.428812 -0.000330582 0.308309 0.682353
0.620566 0.000186153 -0.000456334 0.677941
-0.300257 0.000249869 -0.0291821 0.682353
0.0939361 -0.0048418 -0.368077 0.576471
0.325868 -0.0031465 -0.0894916 0.713726
-0.48905 -0.00100515 -0.190954 0.619608
-0.448707 -0.000595476 -0.294579 0.729412
0.502423 -9.69832e-05 0.263626 0.760784
-0.414665 0.000263991 -0.234205 0.682353
-0.049204 -0.0167264 -0.254067 0.713726
-0.122306 0.0102408 -0.233472 0.682353
0.0134898 0.0419394 0.0203884 0.956863
-0.261306 0.00669041 0.187539 0.670588
0.0341485 -0.00713222 0.0366065 0.764706
-0.163772 0.000993203 -0.446186 0.694118
-0.113304 -0.0161426 0.11747 0.732353
-0.150371 9.14783e-05 0.554745 0.692157
-0.108713 -0.00107486 0.392589 0.623529
0.0881556 0.00129368 0.362407 0.620588
-0.0795944 0.0250038 -0.159377 0.713726
0.4929 9.50195e-05 -0.222633 0.647059
0.252762 0.00326342 0.189929 0.552941
0.423372 0.00428331 -0.181806 0.654902
0.010133 -0.000956414 0.370055 0.717647
0.239573 -0.0041137 0.3074 0.690196
-0.205771 -0.000248762 0.398528 0.62549
-0.273689 -5.37023e-05 -0.353542 0.554902
-0.0895273 0.00173484 0.413338 0.589216
-0.0671618 0.00101441 -0.148269 0.741176
-0.299081 0.00299121 -0.273288 0.556863
-0.0212691 0.0061878 -0.367296 0.654902
0.136887 0.000682914 0.304365 0.666667
0.153047 0.00628401 -0.267782 0.705882
0.344682 -0.00276147 0.0251481 0.733333
0.103792 0.00462976 -0.20561 0.741176
-0.269357 0.00292148 0.00243552 0.741176
-0.443774 -0.000139067 -0.216227 0.716667
-0.0809028 0.00145301 0.306581 0.654902
-0.214274 0.000163446 -0.453993 0.67451
-0.246598 0.00617721 0.305016 0.733333
-0.287725 -0.00614126 -0.166644 0.717647
0.420701 0.000454536 0.137935 0.819608
-0.070099 -0.0327965 -0.0283838 0.827451
0.0910064 0.00114912 0.450704 0.721569
0.290026 -0.00251538 0.0491072 0.801961
0.284075 0.00732191 0.261222 0.679412
0.458581 6.03552e-05 0.337389 0.678431
-0.26436 0.000149574 -0.477358 0.717647
-0.18753 0.00253802 0.124956 0.72549
0.62968 0.00024214 0.0580513 0.715686
-0.512717 9.1111e-05 -0.179159 0.72549
0.193971 -0.000408909 0.493558 0.643137
0.0793916 0.0029045 -0.315108 0.658824
0.439514 3.96043e-05 -0.439932 0.592157
-0.147487 -0.00415757 -0.373758 0.666667
0.187741 0.00433717 0.359798 0.63701
0.28748 -0.00625844 0.0396618 0.729412
0.371886 0.00239885 -0.198515 0.613725
-0.264131 -0.003045 0.314038 0.619608
-0.248747 -0.00022306 -0.277744 0.705882
-0.423432 0.000210033 0.119091 0.741176
0.161597 -0.00397771 0.215895 0.564706
-0.0860445 -0.00419235 0.331776 0.686275
0.314911 -0.00355929 -0.293915 0.678431
0.00965527 0.000731174 -0.470208 0.690196
-0.0183202 0.00355533 -0.370932 0.667647
0.303265 0.000949402 0.264048 0.647059
0.408078 -0.00163577 0.320054 0.570588
0.0106042 -0.0370389 0.0859908 0.964706
0.105313 0.0252569 0.0579527 0.843137
-0.225425 -1.86342e-05 -0.0912176 0.737255
0.0547081 0.00104649 0.449576 0.656863
0.519363 2.37526e-05 -0.386021 0.615686
0.0761794 0.000245124 -0.350844 0.705882
-0.0154825 -0.00777817 -0.333648 0.595588
0.0768459 0.00888948 0.208611 0.773529
-0.103229 -0.00839912 0.290198 0.643137
0.190703 0.00017135 -0.241757 0.670588
-0.0937394 0.0196232 -0.109069 0.866667
-0.522515 8.85998e-05 0.2349 0.572549
-0.293936 0.00177055 0.084913 0.698039
0.0781101 -0.00366035 -0.399607 0.737255
0.0724436 -0.000201991 0.53685 0.558824
0.469988 8.62348e-05 -0.3696 0.678431
-0.0386451 0.000983153 -0.53135 0.695098
-0.0430515 0.00330233 0.340422 0.564706
0.0974758 -0.0015598 0.28489 0.607843
0.12961 -0.0021259 0.379164 0.6
0.490715 -0.000493656 0.00938932 0.819608
-0.508473 -6.22136e-06 -0.113985 0.623529
0.253043 -0.000734301 0.376526 0.698039
0.0780428 0.000433169 0.486013 0.721569
-0.183769 0.0016976 0.396007 0.627451
-0.332172 -8.01238e-05 0.280068 0.612745
0.192246 -0.00509417 -0.234866 0.601961
0.559724 -0.000174697 -0.210252 0.619608
0.149353 0.00259635 -0.232997 0.698039
-0.0680874 -0.00837476 0.342355 0.654902
0.523837 7.10837e-05 0.0907773 0.733333
0.0404451 0.00964085 -0.134649 0.795098
-0.279493 0.0177816 -0.0651743 0.705882
0.476835 0.000859674 0.0492112 0.713726
-0.183415 -0.00946968 0.307522 0.664767
-0.558924 -0.000333113 0.0881138 0.615686
-0.402235 -0.000744659 -0.346023 0.705882
-0.17937 -0.00328531 0.29709 0.734314
-0.0587546 -0.0116089 0.0430983 0.796078
-0.0532223 -0.0350269 0.108492 0.796078
0.15332 -0.00611098 -0.27532 0.839216
-0.511104 0.000239485 -0.19737 0.623529
0.301844 0.00235414 0.0709898 0.789216
0.389893 7.026e-05 0.343621 0.705882
-0.174316 0.00891443 0.335403 0.697549
0.000911932 -0.0354321 -0.0773233 0.968627
-0.344829 0.000348624 0.0574639 0.659804
0.175095 0.0231722 -0.0573358 0.745098
0.248744 0.0118489 0.187409 0.756863
0.242587 0.00349913 0.112186 0.752941
-0.36049 -0.000696007 0.310387 0.67451
-0.320674 0.000218993 0.396477 0.6
-0.00379548 0.00223709 -0.490938 0.729412
-0.215083 0.000518992 -0.188634 0.627451
0.265911 -0.00302869 0.0875162 0.792157
0.302384 8.10365e-07 0.207081 0.678431
-0.044886 0.00816871 -0.291141 0.675735
-0.321919 -0.000317243 -0.371847 0.6
0.147791 0.00351255 -0.121683 0.713726
0.413494 -0.000371325 0.211637 0.745098
-0.178465 0.0130829 -0.273047 0.705882
-0.441619 -0.00206905 0.103541 0.592157
0.292416 0.00985147 0.147651 0.756863
0.139087 -0.000788002 0.466869 0.639216
-0.0609998 0.00688817 0.290396 0.592157
0.096561 -0.00239425 0.1288 0.768627
0.00842773 0.0257598 -0.11781 0.807843
0.0895006 0.000269562 0.521552 0.647059
0.489101 -0.000367802 0.239694 0.670588
-0.403935 0.00318769 0.237395 0.715686
-0.319312 -0.00460806 0.145745 0.729412
0.169865 0.00095543 -0.497757 0.792157
-0.35369 0.00682396 -0.192901 0.682353
0.388668 0.0048056 0.0357607 0.75625
-0.341085 0.000164154 -0.198141 0.619608
-0.229356 0.00748224 0.236499 0.729412
-0.116746 -0.000655562 -0.462035 0.654902
-0.236877 0.0041223 0.0299859 0.717647
0.132016 -0.0270837 0.212367 0.764706
-0.177334 0.00267272 0.407598 0.596078
-0.311942 0.000966444 -0.102167 0.568627
-0.389074 1.53739e-05 -0.203226 0.670588
-0.3022 -0.00649326 0.0243685 0.733333
0.483904 3.01806e-05 0.0602622 0.823529
-0.218598 -0.00188926 0.155657 0.717647
-0.442276 -0.000190959 -0.257497 0.72549
0.155517 3.39123e-06 -0.440994 0.768627
0.544594 8.38702e-06 -0.230883 0.658824
-0.103316 -0.00419505 -0.16574 0.741176
-0.410793 0.00124816 0.183357 0.72549
-0.121699 -0.00917897 -0.00368623 0.921569
0.577749 -7.84373e-05 -0.340203 0.658824
0.420802 -0.00448504 0.103454 0.792157
0.246787 -0.00450884 0.271137 0.584314
0.149208 -0.0122029 0.134467 0.780392
-0.0913563 -0.00588592 0.0116157 0.813725
-0.210855 -0.00199775 -0.342236 0.694118
-0.119665 -0.0185822 -0.00504018 0.8
-0.092485 -0.0126424 0.126027 0.709804
-0.0160547 -0.00456378 0.383186 0.658824
-0.593945 -0.000348493 -0.036619 0.651471
-0.207117 -0.000235092 -0.367462 0.627451
-0.174605 0.00192815 -0.249418 0.686275
0.400171 -0.00148757 0.230867 0.552941
-0.0122528 -1.98759e-05 -0.552693 0.569608
0.0661632 0.00100203 0.348907 0.579412
0.261525 0.00714228 -0.230269 0.807843
0.533652 -0.000189733 0.174689 0.803922
0.0105012 -0.00877432 -0.0411663 0.890196
-0.246767 0.00519273 -0.23777 0.682353
0.228632 0.00338122 -0.238581 0.717647
-0.587596 -5.0903e-05 -0.0687313 0.567647
0.106152 0.00126506 0.424551 0.635294
0.111827 0.0192443 -0.224756 0.756863
-0.0674065 -0.00014249 -0.486907 0.572549
-0.164957 -0.00939653 0.00977506 0.698039
0.359213 0.00066049 0.397829 0.639216
-0.462551 -0.000769009 0.170044 0.803922
-0.0279748 -0.00268422 -0.41856 0.627451
0.295954 0.00380267 0.0226155 0.803922
0.482386 -6.0232e-05 -0.425588 0.643137
-0.235668 -0.0122801 0.188481 0.584314
-0.314449 -0.00397999 0.0829306 0.65098
0.212814 0.00115491 -0.287024 0.827451
-0.290025 -6.55088e-05 0.403202 0.630392
0.0220746 0.0139016 0.262574 0.713726
-0.347232 -0.00904471 -0.0321249 0.698039
-0.355613 0.00816273 -0.106612 0.733333
0.428971 -0.00100699 0.182367 0.796078
-0.345926 0.00164832 0.165449 0.796078
0.0511764 -0.000409491 -0.391109 0.615686
-0.0358391 0.0195253 0.0290966 0.934314
0.0596514 -0.0136212 -0.220877 0.690196
0.149496 -0.00557618 -0.382833 0.807843
-0.275491 0.0015689 -0.37586 0.572549
-0.167313 -0.0010471 0.446087 0.643137
0.274401 0.00271461 0.21641 0.615686
-0.274471 -0.000758194 -0.37906 0.694118
0.0272193 -0.0101044 0.283341 0.622549
-0.476164 -0.000161553 -0.170047 0.709804
0.552111 0.00013579 0.0512591 0.741176
0.0137237 0.00447158 -0.0426621 0.933333
-0.235491 -0.0120616 -0.181734 0.741176
-0.104487 -0.0249283 0.0116044 0.588235
-0.294719 -0.00419748 -0.157546 0.741176
-0.34901 0.00809338 0.12163 0.721569
0.112268 -0.00940265 -0.0725191 0.747059
-0.121297 0.0013968 0.311763 0.67451
0.498732 -0.000251251 -0.311854 0.615686
-0.322327 0.00053938 -0.362811 0.615686
0.317676 0.00588917 -0.24918 0.780392
-0.431406 -0.00148905 0.124151 0.670588
0.290531 0.00147566 0.0354632 0.698039
-0.186103 -0.00183579 0.0586994 0.733333
0.105122 -0.0252105 -0.0322759 0.75098
0.39041 -0.00199528 0.208169 0.6
-0.337203 -0.000147743 -0.321186 0.682353
0.181686 -0.00491342 -0.19967 0.709804
-0.308884 -0.000116557 -0.50715 0.690196
0.500291 0.000766901 0.16744 0.721569
-0.0626448 -0.000219364 -0.429534 0.568627
0.0080849 0.00198283 -0.461312 0.67451
-0.0485182 0.0133647 -0.234506 0.741176
-0.0111356 0.0224192 0.194293 0.745098
0.406442 -0.000432379 0.417369 0.670588
0.118451 -0.0108635 0.0198367 0.756863
-0.477556 -0.000252331 -0.174707 0.647059
0.328308 0.000178956 -0.394557 0.807843
0.475061 -0.000560141 0.201024 0.630392
-0.302818 -0.000540178 0.367255 0.666667
-0.306277 9.7438e-05 -0.357685 0.647059
0.28614 -0.000752401 0.318226 0.611274
-0.272787 0.00144154 -0.301818 0.643137
-0.0670516 0.00493985 -0.113978 0.572549
0.0631986 -0.0127071 -0.231028 0.686275
0.574531 0.000233599 -0.0114115 0.776471
0.0629833 -0.0342481 -0.0477017 0.989461
-0.0271394 0.0148221 -0.29547 0.741176
-0.239664 0.00676886 0.292614 0.721569
-0.176077 0.001115 -0.25614 0.741176
-0.283558 -0.00238061 0.19182 0.717647
-0.185844 -0.03711 -0.109116 0.685417
0.155719 0.00117483 0.405603 0.717647
0.43495 -0.000147118 -0.0529408 0.690196
-0.446857 -3.74094e-05 0.210116 0.686275
-0.189369 0.00146531 0.246597 0.737255
-0.515713 0.000235199 -0.064781 0.678431
-0.235333 -0.00371632 -0.17453 0.718627
0.166561 -0.0108482 -0.07957 0.741176
0.500349 0.000613868 0.0314512 0.839216
0.380317 -0.000882933 0.194172 0.603922
0.0591477 0.000478052 -0.394593 0.737255
-0.0126382 0.00337486 0.345844 0.593137
0.255307 -0.00430731 -0.195394 0.631373
0.134439 0.000181119 0.440609 0.670588
-0.128657 -0.0285067 0.0324595 0.764706
-0.510265 0.000468302 -0.351619 0.693137
-0.351044 -0.00196981 0.0279911 0.67451
0.0823932 0.0118072 0.0182398 0.988235
0.406025 -0.0028399 -0.232019 0.643137
0.357942 0.00061912 0.369795 0.682353
0.551068 3.8481e-05 -0.110875 0.666667
0.225346 0.00455222 0.20685 0.705882
-0.331493 0.00322488 0.0140222 0.576471
0.116472 0.00101209 0.429659 0.690196
0.300066 -0.000649717 -0.222665 0.811765
-0.466899 -0.000131264 -0.246921 0.72549
-0.348633 0.00421398 -0.1728 0.596078
-0.250726 0.0161739 -0.154181 0.67451
0.454957 -0.000374935 0.198563 0.745098
0.320554 0.00253654 -0.197867 0.670037
0.0119213 0.000630424 -0.482735 0.690196
-0.0107511 0.000910015 -0.444106 0.584314
-0.351054 -0.000871763 -0.309858 0.670588
-0.18393 -0.00421345 -0.0981938 0.756863
-0.151092 0.00487807 0.360739 0.603922
0.540798 7.1171e-05 0.163103 0.596078
-0.132661 -0.00146718 -0.342863 0.701226
-0.029172 0.00981038 0.264966 0.61348
0.12629 -0.00070145 -0.399475 0.643137
-0.406877 -6.65654e-05 0.0951025 0.654902
0.0229698 -0.0168624 -0.148768 0.737255
-0.00823385 -0.0476656 -0.0226048 0.97451
-0.0368667 0.0099496 0.342269 0.607843
-0.298045 -7.05348e-05 -0.335364 0.555882
0.324833 0.00841517 0.0688353 0.807843
-0.010879 -0.00106296 0.460133 0.552941
-0.256967 0.0112124 0.187918 0.72549
0.274263 0.0112045 0.130195 0.734314
-0.181093 0.00133362 0.40424 0.612745
-0.50387 -0.000130511 0.216598 0.643137
0.0424131 -0.0307668 -0.0829881 0.8
-0.245835 0.000681672 0.493143 0.666667
0.293187 0.0124607 0.158052 0.737255
0.0618517 0.00730186 0.35739 0.585294
-0.0564447 0.00759484 -0.267375 0.641176
-0.0688025 -0.00137908 0.482455 0.645833
0.421312 -0.000479507 0.108914 0.768627
0.542563 -1.68785e-05 0.0667983 0.847059
-0.187702 -0.00750251 -0.096299 0.694118
0.310398 -0.00764669 -0.0976986 0.584314
0.151298 0.00164145 0.349357 0.609804
0.212393 0.00261529 -0.404221 0.612439
-0.0830034 -0.00368257 0.392521 0.654902
-0.00108849 0.0254467 -0.243467 0.741176
-0.0596967 0.0214861 -0.0555951 0.811765
-0.233074 0.000555497 0.43967 0.737255
0.0515254 0.000245413 -0.420354 0.768627
-0.202476 0.000733135 0.405499 0.635294
0.227689 0.0103077 0.0764586 0.792157
-0.108265 0.00640146 -0.249506 0.741176
0.156156 0.000243835 0.077897 0.780392
0.0440462 -0.00056558 0.542719 0.607843
-0.279854 -0.000601822 0.384659 0.721569
0.234664 -0.00162193 -0.159973 0.807843
0.376859 0.000289014 0.185485 0.802941
-0.355371 -0.000513305 -0.354239 0.717647
0.467198 0.000175438 0.250066 0.721569
0.0103926 0.000991876 -0.478029 0.647059
0.129161 0.00317786 -0.362373 0.843137
0.122858 -0.0131831 0.00645722 0.768627
0.198356 0.00918923 0.100259 0.796078
0.562284 -0.000142455 -0.0817532 0.553922
-0.2677 0.0041246 0.221472 0.764706
-0.32144 0.000268 -0.277105 0.72549
0.284214 0.00185053 0.351187 0.631373
0.109988 -0.000829939 -0.523801 0.666667
-0.148812 0.000518326 0.348728 0.654902
-0.0318538 0.0237946 0.171976 0.780392
-0.23407 -0.0115719 -0.113145 0.644118
0.249103 -0.00155461 -0.270724 0.813725
-0.113924 0.0274364 -0.0435733 0.792157
-0.379762 -0.00029253 -0.368168 0.686275
-0.241297 0.00357601 0.270784 0.619608
0.0619118 3.40804e-06 0.465655 0.617647
0.586101 0.000258191 -0.147766 0.737255
-0.152934 0.000421324 0.408071 0.643137
0.473017 4.85187e-05 -0.415595 0.62549
-0.150313 -0.0359466 0.121498 0.784314
-0.0680433 -0.000261 0.57042 0.72549
0.562815 -0.000148671 -0.162713 0.701961
-0.351775 -0.0070286 -0.0951556 0.662745
0.313568 0.00060945 0.434391 0.737255
-0.208892 -0.0051655 -0.19839 0.741176
0.195209 0.00990463 -0.037979 0.559314
0.271978 0.00157168 -0.373444 0.624449
-0.0115968 -0.0152165 0.223082 0.776471
-0.0756677 0.0348333 -0.0304336 0.957843
0.0211795 0.00197391 0.473937 0.623529
-0.0853074 0.0122079 0.19353 0.642157
0.228443 0.00095042 0.402846 0.647059
-0.459197 -0.000810467 -0.333563 0.666667
0.00191999 -0.00808637 0.240429 0.780392
-0.195266 -0.0151452 -0.088523 0.678431
0.0394662 -0.00347678 -0.45773 0.654902
0.19222 0.0025381 0.126239 0.743627
0.105672 0.0167765 0.158327 0.776471
0.489765 3.16149e-05 0.2025 0.803922
0.357633 0.00266513 -0.201709 0.80098
-0.296064 0.000861394 0.133096 0.67549
-0.119677 -0.00447864 0.200768 0.733333
0.157394 0.00171605 0.3674 0.640196
0.139314 0.011148 0.122113 0.721569
-0.462696 0.000536947 -0.351065 0.709804
-0.27126 0.000434703 0.22945 0.592157
-0.62217 -0.000110017 -0.0154495 0.564706
0.315192 -0.00172888 0.375712 0.663971
-0.305596 -0.00492824 0.141128 0.654902
-0.0355279 -0.0150486 -0.059541 0.814706
-0.0101996 -0.00650467 0.344226 0.626471
0.205821 0.00529466 -0.270114 0.745098
0.57762 -0.000314692 -0.122096 0.623529
-0.101177 5.76538e-05 0.528485 0.686275
0.391835 0.00017641 0.303628 0.776471
-0.248342 -0.00272229 0.144402 0.717647
-0.216537 -0.00995186 0.243536 0.713726
-0.1351 -0.0112582 -0.166852 0.717647
-0.193428 0.00992045 0.00862605 0.556863
0.207046 0.000119244 0.379289 0.760784
-0.363592 0.0030144 -0.0781098 0.572549
0.168187 0.0049803 0.179114 0.782353
-0.0415866 -0.00341463 -0.406115 0.660784
0.0528647 0.039997 -0.100969 0.843137
0.451124 -0.000213951 -0.252888 0.584314
-0.246071 -7.00471e-07 0.462728 0.631373
0.174512 0.0014158 -0.0543619 0.752941
-0.0743152 0.0138239 0.258848 0.596936
0.516486 6.71809e-05 -0.371852 0.678431
-0.250715 -0.00148768 -0.232345 0.611765
-0.0857798 -0.00090692 0.402358 0.698039
0.166279 0.00538135 -0.318275 0.827451
-0.0137835 0.00325942 -0.419063 0.686275
-0.0718015 0.00318386 0.366673 0.654902
0.251715 -0.000447401 -0.506235 0.679412
-0.0761288 0.00185249 -0.312315 0.555882
-0.387039 0.000408177 -0.347136 0.685294
-0.108528 -0.0217056 0.136582 0.62451
0.0335099 0.000267532 -0.448573 0.690196
-0.105064 0.0143561 -0.0390959 0.745098
0.259379 -0.0028834 -0.0480148 0.72549
-0.355872 0.00674448 0.207688 0.756863
-0.154213 -0.0103873 -0.136058 0.638235
0.136119 0.0211664 -0.00147301 0.764706
0.251619 -0.000375551 0.405049 0.716667
0.219115 0.0240611 -0.0277207 0.756863
-0.332691 0.00159256 -0.328786 0.67451
0.193135 0.00202883 0.294619 0.690196
-0.298011 -0.00586981 0.137456 0.74902
0.145086 0.0267967 0.114746 0.717647
0.172702 -0.0113754 -0.0335132 0.741176
0.156518 -0.0204953 0.144297 0.733333
0.0991773 0.00035899 0.34873 0.629657
0.00533684 -0.000632461 0.441273 0.584314
-0.391299 -0.00441488 0.0244848 0.580392
0.153973 -0.0324397 -0.101684 0.792157
-0.25266 0.00314924 -0.299986 0.678431
0.582602 -0.000111795 -0.282589 0.673529
-0.331373 0.000766205 -0.325403 0.698039
0.0970653 0.00112364 -0.422937 0.733333
0.0610813 -0.00182454 -0.408354 0.792157
-0.604832 1.76489e-05 0.248853 0.603922
0.240935 -0.00222665 0.044125 0.768627
0.0515029 0.00234747 0.0770725 0.976471
-0.418298 0.00186388 0.00774894 0.717647
-0.0044631 0.0118553 0.266458 0.713726
-0.0169673 -0.0294081 0.19553 0.784314
0.30694 0.0029734 -0.159419 0.729412
0.0980466 -0.0193835 0.0156732 0.890196
0.484665 4.25652e-05 0.176153 0.870588
-0.207543 -0.0011445 0.388019 0.717647
-0.0411304 -0.0143213 -0.217221 0.729412
-0.119999 0.00142422 -0.449662 0.641176
0.10743 0.02416 0.0283977 0.780392
0.331676 0.0106817 0.0964759 0.741176
0.171323 -0.0149096 -0.145542 0.6
-0.149276 0.0286259 -0.0634091 0.640196
-0.226851 0.000315629 0.469388 0.645098
-0.261754 -0.000236119 -0.463594 0.653922
-0.0745508 0.00078104 -0.495669 0.556863
0.113111 0.00100096 0.503991 0.705882
-0.0317358 0.0171945 -0.299385 0.698039
0.351289 -0.010702 -0.0969997 0.719608
-0.409468 -0.000137372 -0.353862 0.588235
-0.0254692 0.0215478 0.0171635 0.968627
-0.316267 2.68163e-05 -0.386375 0.623529
-0.0598832 0.0255882 0.116645 0.776471
0.383394 -0.00142114 -0.183181 0.643137
0.0314786 0.0124374 0.182841 0.760784
-0.0391342 -0.0362571 0.0269625 0.807843
-0.00526836 -0.000503114 0.541766 0.678431
-0.0485802 0.0297578 0.133285 0.784314
0.124885 -0.0193658 0.14439 0.780392
-0.0448336 -0.0128395 0.260123 0.797304
0.0456634 -0.0326512 0.0620417 0.972549
0.0021201 -0.0284288 0.13879 0.772549
-0.00233835 -0.00621671 0.270556 0.760784
0.236589 0.000492174 -0.497426 0.603922
-0.330887 -0.0133355 -0.0546014 0.717647
-0.293887 -0.0101978 -0.0483374 0.709804
-0.414084 0.00155036 0.0147321 0.635294
0.556754 6.46276e-05 -0.308161 0.678431
-0.196433 0.0155995 0.1687 0.584314
0.0966698 -0.00423134 0.370343 0.59902
-0.23857 0.000739498 0.2539 0.713726
0.326488 0.000366399 0.482463 0.718627
0.412036 0.000125736 0.411529 0.635294
-0.0883251 0.0144022 0.153697 0.780392
0.167194 0.0317493 0.0483877 0.756863
-0.257976 0.0095619 -0.113254 0.729412
-0.228262 0.0103624 -0.168543 0.729412
-0.568332 0.000423384 -0.0501212 0.556863
-0.0197552 0.00765811 0.133015 0.737255
-0.0161693 0.000771236 0.425081 0.564706
-0.112765 -0.000716019 -0.462053 0.705882
-0.250811 -0.00323605 -0.0714098 0.647059
-0.383755 0.00431743 0.0715767 0.654902
0.339516 0.00458174 0.0974155 0.768627
0.356471 -0.00480485 0.155655 0.594853
-0.0242971 0.0262898 -0.13732 0.703922
0.0203809 0.000147317 -0.346284 0.733333
-0.132094 0.0288705 -0.104658 0.557353
0.0271316 -0.000776131 0.340991 0.556863
0.545094 0.000321893 0.228324 0.760784
0.321657 -0.00198696 0.0294423 0.803922
0.0184991 0.00626663 0.168593 0.760784
-0.323085 0.000914393 0.258218 0.737255
-0.0852642 -0.00415344 0.111847 0.764706
0.136475 0.000179732 -0.285441 0.579412
0.0743392 0.0336306 -0.00453765 0.803922
-0.328542 0.00025802 -0.423857 0.615686
0.0479065 -0.0082847 0.0730248 0.682353
-0.162164 -0.000409713 -0.117576 0.713726
0.553549 -0.000151523 0.313078 0.721569
-0.3268 -0.00496936 -0.078318 0.576471
0.306287 0.000993652 -0.297034 0.698039
0.336972 0.00809584 0.147698 0.670588
-0.169168 0.010397 0.0394354 0.756863
0.0445017 0.00773515 0.248954 0.6
-0.0520697 -0.000619648 0.453334 0.72549
-0.195538 -0.0126675 0.125115 0.751961
-0.0869213 -0.00226878 0.336101 0.678431
0.00455773 0.000912036 0.46787 0.654902
0.516546 6.72232e-05 -0.402399 0.567647
-0.345874 -0.0083045 0.0948289 0.709804
0.0480396 0.0136834 0.249742 0.745098
0.14118 -0.000104476 -0.555746 0.556863
0.0815082 0.00655663 0.202505 0.745098
0.532089 7.23811e-05 0.0066007 0.819608
-0.240331 0.000378069 -0.43017 0.588235
0.204586 0.0158339 -0.0599411 0.745098
0.35114 0.00923983 0.0255531 0.72549
-0.156956 -0.00584626 0.212297 0.713726
0.467217 6.76359e-05 -0.35418 0.672549
-0.313955 0.00253987 0.265344 0.678431
-0.339169 -0.00605161 -0.136743 0.627451
0.478831 -3.52184e-06 -0.30247 0.639216
0.090008 -0.00693065 -0.0307341 0.909804
-0.399889 -0.0045415 0.0489447 0.623529
0.410462 -0.000143079 -0.195605 0.615686
-0.232818 -0.000422534 0.457441 0.692157
-0.220159 0.00692688 0.190758 0.713726
0.127596 0.0178709 0.0344977 0.678431
-0.122752 -0.0272331 0.10476 0.778431
0.376548 -0.00202939 -0.10986 0.687255
0.569846 -0.000306576 -0.0191123 0.792157
0.364374 -0.00627331 -0.159011 0.698039
-0.363681 -0.000446938 0.330204 0.8
0.298862 0.00369579 -0.176073 0.734314
0.429501 0.00021416 0.0937067 0.803922
-0.154868 -0.00079925 0.45087 0.623529
-0.00876822 -0.00344503 0.400017 0.678431
-0.394749 0.00149371 0.0536856 0.654902
0.144912 0.000863986 0.362247 0.631373
0.200916 0.0159669 -0.00321779 0.745098
-0.421699 0.000377966 -0.263032 0.670588
-0.245978 -0.000148753 0.439789 0.686275
-0.509301 0.000140762 -0.103855 0.603922
-0.232672 0.00207239 -0.0128315 0.603922
-0.108338 0.000420126 0.411943 0.77549
0.113135 0.00287351 0.100831 0.776471
-0.154455 0.00166234 -0.3371 0.698039
-0.0301072 -0.00714352 0.333192 0.705882
-0.0811512 -0.000200406 -0.356666 0.760784
0.174175 -0.00040367 0.442397 0.596078
0.0843127 -0.008639 0.236212 0.768627
0.0675554 0.0226446 0.113289 0.57451
0.219712 0.00125327 0.331744 0.713726
-0.358371 0.000109714 -0.261372 0.588235
-0.331546 0.004018 0.193592 0.713726
0.0432561 0.0327072 0.0938513 0.796078
-0.0452973 -0.00311294 0.279653 0.615686
-0.54244 0.00017142 0.165803 0.6
-0.169287 -0.00954715 0.165421 0.737255
0.160886 0.000234038 -0.356588 0.658885
-0.617008 -0.00013584 -0.19313 0.556863
0.426722 -0.000990537 -0.371126 0.644118
0.068589 0.00863405 0.262303 0.666667
0.0609226 0.0047646 -0.268825 0.690196
0.00794527 0.0021251 -0.125099 0.768627
-0.0474075 -0.00533175 -0.289632 0.686275
0.298856 0.000281189 -0.295841 0.819608
-0.124844 0.0433901 0.0342155 0.819608
0.312213 -0.00040128 0.471473 0.690196
-0.323136 0.00390519 0.00614164 0.669608
-0.00947447 -0.00846407 -0.226539 0.686275
-0.163392 0.00297867 -0.132756 0.705882
-0.261793 0.00567397 -0.0241895 0.631373
-0.262176 -0.00595863 -0.0815122 0.694118
-0.462426 0.000118848 -0.31178 0.647059
-0.203696 -0.000883282 0.322742 0.690196
0.49551 -0.000270671 -0.149453 0.697059
-0.149374 -0.00972423 0.26242 0.728431
-0.368001 -0.000492149 -0.274971 0.694853
0.0978639 -0.0188758 0.178258 0.772549
-0.0764845 0.0113109 -0.0170684 0.647059
-0.47675 0.000234027 -0.228255 0.689216
-0.387067 -0.00092951 -0.225107 0.643137
0.11375 0.0318202 0.0712649 0.686275
0.191726 -0.00717436 -0.111194 0.604657
-0.418947 -0.0012252 -0.223941 0.592157
0.323869 -0.00296647 -0.210361 0.67451
0.292419 -0.0022359 -0.0670817 0.737255
0.14486 0.0198901 0.189634 0.766667
-0.124201 -0.0100054 -0.24156 0.737255
-0.180584 0.000457127 -0.383266 0.713726
-0.199363 -0.00139121 0.190576 0.737255
-0.218625 0.00054283 -0.463395 0.59902
-0.119163 -0.000144343 -0.415707 0.643137
0.303014 -0.0032371 -0.0586209 0.631373
0.241065 -0.000310338 -0.44457 0.61345
0.0437306 2.44255e-05 -0.44782 0.682353
-0.16925 -0.00292704 -0.352185 0.729412
0.0971414 0.000690102 -0.546498 0.67451
-0.396225 -0.00139349 -0.36324 0.682353
0.296455 0.00388965 -0.217022 0.733333
-0.0465029 0.00202493 0.499538 0.585294
0.179722 -0.00139658 -0.384588 0.729412
-0.29347 2.27069e-05 -0.256545 0.694118
0.483156 0.000547262 -0.035052 0.662255
-0.397896 0.00412702 -0.143665 0.576471
-0.336601 -0.00399515 0.181099 0.647059
0.315977 -0.00468908 -0.188886 0.772549
-0.362332 -0.0013531 -0.248774 0.647059
-0.0894509 -0.033866 -0.0666909 0.921569
0.160296 -0.0223082 0.127824 0.676854
0.371927 -0.0012207 0.141117 0.834314
-0.186904 -0.0144063 0.201722 0.652941
-0.140793 -0.00870246 0.118079 0.709804
-0.123054 -0.00383203 0.0609141 0.737255
0.46094 0.000202115 -0.303677 0.596078
0.320076 -0.0029127 -0.0670003 0.741176
0.300332 -0.00254837 0.0631616 0.80098
0.289315 0.00409876 -0.134215 0.803922
-0.350813 -0.00454298 0.154299 0.704902
-0.614638 -3.99423e-05 0.226286 0.588235
0.225872 -0.00682069 -0.0609036 0.713726
-0.0607671 -0.0170974 -0.160503 0.717647
-0.369147 -0.000613862 0.287725 0.631373
-0.357716 0.000395241 0.301245 0.764706
-0.198547 0.001832 -0.441137 0.72549
-0.209721 0.0184978 -0.228637 0.733333
-0.346332 0.00144589 0.163969 0.647059
0.346809 0.00718642 0.0145649 0.776471
-0.604774 5.16939e-05 0.302188 0.556863
-0.162796 -0.0159857 -0.169115 0.741176
0.151297 -0.00736893 -0.274349 0.670588
0.42454 0.000401173 0.340632 0.607843
-0.322021 0.00246571 -0.0786256 0.572549
0.112871 0.00214167 -0.45 0.584314
0.104283 -0.020101 0.0800834 0.639216
-0.203766 0.0323758 0.0442236 0.72549
-0.311468 0.000542987 0.38249 0.658824
-0.485487 -0.000493377 -0.157251 0.694118
0.0763495 -0.00794655 0.0410919 0.801961
0.220001 0.0188287 -0.123978 0.745098
-0.114143 0.00244662 0.41579 0.596078
-0.259363 0.00187032 -0.35099 0.670588
0.107225 0.00700418 -0.275835 0.647059
-0.411664 0.00076879 -0.288192 0.686275
0.0719766 3.05966e-05 0.374004 0.658824
-0.412966 -0.000743506 0.289728 0.866667
0.0236269 -0.000374892 -0.393962 0.639216
0.114137 -0.000820122 -0.495912 0.65098
-0.502403 0.000350754 -0.129725 0.651226
0.399088 -0.00307673 0.0185448 0.715686
0.0121522 0.00285126 -0.215332 0.737255
-0.203223 -0.000274556 0.461588 0.619608
-0.0627656 0.00078987 -0.431879 0.711765
0.132893 -0.0122655 -0.192781 0.717647
0.0839928 0.00797103 -0.243827 0.619608
-0.194311 -0.00580514 -0.0875464 0.741176
-0.0200893 -0.00317222 0.136195 0.796078
-0.104226 0.00140204 -0.438989 0.647059
0.530398 0.000192316 0.0708373 0.807843
-0.264307 -0.0102346 0.0536345 0.670588
0.0423546 0.00583884 -0.354325 0.643137
-0.00269432 -0.000669406 -0.341654 0.756863
-0.56484 -0.000231108 0.12727 0.584314
0.270608 -0.000396163 0.0986356 0.794118
-0.274272 0.00708065 -0.0574307 0.734314
0.30615 0.000414961 -0.308169 0.659804
0.200619 0.00136352 -0.1934 0.737255
-0.374643 0.00171284 0.0273048 0.698039
-0.43983 0.000135768 0.241495 0.682353
0.0383676 0.0102353 0.258997 0.756863
-0.496745 0.000368848 -0.0426108 0.670588
-0.318533 -0.000741599 0.2981 0.662745
0.293092 -0.000256341 -0.423279 0.780392
-0.109558 0.000989787 -0.267155 0.647059
0.126297 -0.0205101 -0.0166894 0.921569
0.0686476 -0.0383874 0.0157975 0.92549
0.175945 0.00755795 -0.178955 0.639216
-0.158647 -0.00311577 0.268048 0.733333
-0.155816 0.00749306 -0.225052 0.619608
0.246636 -0.000215942 -0.257492 0.737255
0.168945 0.0228061 -0.0383247 0.772549
-0.112845 -0.00788457 -0.153769 0.741176
0.351613 -0.00321612 -0.269288 0.677451
-0.0813471 -0.00017446 0.381414 0.67451
0.527107 7.39429e-05 0.309147 0.568627
-0.384283 -0.00067016 -0.340017 0.670588
0.172901 -0.00241504 -0.259415 0.756863
0.450034 -0.000540826 0.0666799 0.711765
0.0981294 0.011248 -0.244345 0.639216
-0.532568 -0.000369453 0.102579 0.631373
-0.141629 0.0113181 -0.288673 0.682353
0.155468 -0.0127966 0.0774539 0.764706
0.41815 -0.000100436 -0.317195 0.578431
0.342913 -0.002213 -0.280632 0.619608
