-0.270524 0.00126022 0.494892 0.839216
0.286251 -0.0124122 -0.0685648 0.737255
-0.0209099 0.00512089 0.43782 0.788235
0.154333 0.00951226 0.562528 0.866667
-0.0313348 0.000301817 -0.298599 0.670588
-0.214211 0.0188428 0.0329649 0.811765
0.31043 -0.00460618 0.113383 0.635294
-0.444662 -0.00932423 0.275971 0.745098
-0.237645 0.000136266 -0.108766 0.709804
0.429622 0.000474989 0.186148 0.752941
-0.198492 0.0128068 0.0278163 0.843137
-0.211267 -0.0246093 0.00275189 0.87451
0.242715 0.00761343 -0.460075 0.69902
0.434339 0.00194443 -0.275666 0.760784
-0.255844 -0.00301166 -0.388189 0.745098
-0.425116 -0.00817327 -0.262675 0.854902
-0.25214 0.0112291 0.150092 0.686275
-0.414507 -0.0120316 -0.0120033 0.988235
-0.423473 -0.00648895 0.239358 0.74902
0.241894 -0.00757404 -0.0325674 0.858824
0.375277 -0.00592747 -0.0694165 0.964706
0.165914 -0.00826359 -0.307746 0.619608
-0.0389502 -0.0112394 -0.0718342 0.984314
-0.0408057 -0.00368573 0.000640113 0.988235
-0.387723 -0.00547155 0.0875547 0.70098
0.280457 0.000983197 0.156224 0.615686
0.122435 0.00221414 -0.530507 0.807843
0.34889 -0.0087228 -0.0346785 0.968627
0.24125 -0.00320292 0.325547 0.815686
-0.0458145 0.0234413 -0.0167952 0.960784
0.264934 -0.00724727 -0.203027 0.766422
-0.170329 0.0068545 0.312943 0.717647
0.346397 0.00178606 0.0151714 0.941176
0.0153655 -0.00904403 -0.489963 0.694118
0.505914 -0.00281059 -0.236704 0.882353
0.161441 0.0224323 -0.0421292 0.858824
-0.308001 -0.019722 -0.0715309 0.72549
-0.0477251 0.0313037 -0.106588 0.905882
0.0120608 -0.0171976 -0.159811 0.803922
0.100544 -0.0114573 -0.299529 0.669608
0.206295 0.0163012 0.35087 0.890196
-0.226311 -0.00622681 0.37425 0.694118
0.0915643 -0.00188168 -0.266982 0.768627
0.244811 0.00481725 0.301671 0.662745
-0.260974 -0.0142147 -0.313397 0.717647
-0.446429 0.0165859 -0.123946 0.933333
-0.244145 -0.00922158 0.389886 0.733333
-0.194887 -0.00447278 -0.493014 0.773529
-0.489047 0.0100762 -0.217828 0.6
-0.175662 -0.0028645 -0.244651 0.643137
0.441094 0.0112732 0.198801 0.6
-0.0826924 -0.0158306 0.00886674 0.87451
0.12197 -0.0128737 0.0102712 0.87451
-0.490143 0.0135043 -0.189151 0.901961
-0.180361 -0.00207638 0.11961 0.682353
-0.0688889 -0.00911942 0.586968 0.654902
0.0945266 0.00172575 -0.503274 0.866667
0.0134495 0.00116933 0.157314 0.687255
-0.0889405 -0.0084906 -0.130013 0.831373
-0.147158 -0.00847644 0.0878435 0.681373
0.26885 -0.00138928 0.445685 0.894118
-0.268705 -0.00577862 -0.534491 0.741176
-0.347265 0.00858263 -0.260579 0.74902
-0.0602756 -0.00934613 -0.54754 0.823529
-0.451985 -0.01021 -0.191746 0.956863
0.186684 0.00285703 0.538812 0.95
0.133212 -0.00886512 -0.0111326 0.867647
-0.316008 0.00358319 -0.265529 0.762255
-0.159144 0.00168665 0.0425602 0.862745
0.072796 -0.00700827 -0.58439 0.603922
-0.191131 0.0144513 -0.358212 0.65098
0.0766849 0.000206303 0.393416 0.760784
0.241833 -0.00440273 -0.458143 0.756863
-0.279431 -0.00980194 -0.364675 0.676471
-0.389937 0.011699 -0.0616127 0.886275
-0.379456 -0.00956397 -0.100784 0.823529
0.0145353 0.0204937 0.0737088 0.886275
-0.285814 0.00605714 0.122795 0.631373
0.228144 -0.0228313 0.0300671 0.796078
-0.0690438 0.00806811 -0.170531 0.639216
0.375866 0.0177716 0.138052 0.941176
0.127696 0.00998887 0.341184 0.715686
-0.173912 0.00991294 0.390762 0.701961
0.259398 -0.0182149 -0.0592117 0.894118
-0.404979 -0.0154199 -0.217589 0.772549
-0.0326991 -0.012079 0.39967 0.647059
0.151481 0.0174513 -0.0857417 0.85098
-0.0419563 -0.0210856 -0.0452983 0.984314
0.146608 0.0210624 0.299393 0.662745
0.481501 0.000185201 -0.168627 0.709804
-0.293854 0.0145956 -0.210595 0.639216
-0.00404529 -0.0238137 -0.189501 0.729412
-0.576224 -0.00733191 0.0697732 0.854902
0.29221 -0.00665175 0.0251011 0.780392
0.0900801 -5.11517e-05 0.584103 0.952941
-0.0520138 0.00269435 -0.164331 0.835294
-0.118673 -0.0160008 0.123301 0.611765
0.0908557 -0.0268942 0.0472188 0.811765
0.139784 -0.00393124 -0.0948907 0.837255
0.245631 -0.0248455 0.113958 0.611765
-0.44994 -0.0114593 0.246947 0.6
-0.0123748 0.00694731 -0.518652 0.882353
-0.232223 0.0170134 0.0475152 0.772549
0.282238 0.000316634 -0.153158 0.756863
0.0381732 0.0255265 0.0620213 0.894118
0.338523 -0.0101633 -0.125002 0.972549
-0.319154 -0.00660489 -0.462013 0.639216
0.038863 0.0086444 0.38418 0.741176
-0.120626 -0.00609938 0.312485 0.611765
0.0497876 0.00986184 -0.330015 0.643137
0.395723 0.00171076 0.242018 0.847059
-0.188587 0.00156983 -0.122513 0.647059
0.296783 0.0123026 0.341017 0.917647
-0.093547 0.00428583 0.565773 0.678431
0.0398379 -0.0150366 -0.336175 0.627451
-0.344107 -0.0214001 -0.0415966 0.75
0.185955 -0.00134386 0.568119 0.843137
0.036322 -0.000326364 -0.0751867 0.984314
0.387362 -0.00840634 0.0983756 0.952941
-0.0646107 -0.0291988 -0.0335165 0.913725
-0.028223 0.00183353 -0.549373 0.833333
0.219292 0.00161577 0.558987 0.960784
-0.033531 -0.00363468 -0.320581 0.639216
0.286325 0.00872756 0.407705 0.905882
-0.390782 -0.000193841 -0.0122261 0.901961
0.144481 -0.0026557 0.492974 0.637255
-0.181851 -0.00361477 0.344813 0.740196
0.45451 -0.00984063 0.016508 0.741176
-0.465885 0.000281557 -0.0976542 0.843137
-0.428114 0.0106248 0.0111136 0.978431
-0.0517934 0.0054764 0.0462592 0.898039
-0.273232 -0.00501206 -0.25459 0.609804
-0.299158 -0.00377965 0.349784 0.871569
-0.120885 0.000332264 0.585653 0.623529
0.239757 0.00999105 0.452661 0.882353
0.357274 -0.0136536 0.092895 0.861765
0.184923 0.00215609 -0.061413 0.792157
-0.437592 -0.00451127 -0.44289 0.6
-0.00530387 0.0110695 -0.277062 0.756863
-0.0986159 0.00456365 -0.141187 0.808824
0.0339806 -0.0246529 0.0952991 0.85098
0.252462 0.0127472 -0.175044 0.669608
0.396943 0.00489723 0.213739 0.862745
-0.21407 0.00269746 0.087635 0.619608
0.43657 9.99746e-05 0.21393 0.670588
-0.474791 0.00603352 -0.0683789 0.627451
-0.467909 -0.00186398 -0.264117 0.858824
-0.0954667 0.0202855 0.119792 0.671078
-0.323421 -0.0106725 0.304939 0.694118
0.279726 0.00906099 -0.411305 0.701961
0.133153 -0.00185523 -0.133598 0.635294
0.20601 -0.0174793 0.343262 0.847059
-0.267963 0.0162789 0.167156 0.780392
0.31599 0.00696495 0.0899267 0.667647
-0.106114 0.0102291 0.395857 0.694118
0.240412 0.0106407 -0.51139 0.94902
0.0411774 0.00594059 -0.154479 0.756863
-0.127722 -0.00308514 0.531708 0.6
0.381588 0.011869 0.227913 0.964706
0.318558 0.00100307 0.391414 0.831373
0.322275 0.00149551 0.129724 0.741176
-0.418477 0.00872771 -0.368102 0.839216
-0.365411 -0.00169106 0.0182967 0.976471
0.059536 -0.0113144 -0.138471 0.882353
-0.180102 0.00673271 0.309642 0.776471
-0.0274092 -0.00922034 -0.581727 0.611765
-0.403417 0.0135523 -0.3291 0.832353
-0.439742 0.0012605 0.0409881 0.683333
-0.282654 -0.0117799 0.293513 0.788235
0.367075 0.00543425 0.0170866 0.929412
0.17063 -0.0163849 0.0436471 0.731373
-0.373957 0.0031381 0.0355802 0.980392
-0.133304 0.00618403 0.544303 0.718627
0.129196 0.00134256 0.053751 0.839216
-0.0795619 -0.0288126 -0.00810377 0.901961
-0.0630271 0.00832228 0.0191512 0.921569
-0.0413213 -0.00495371 -0.555135 0.72549
0.219783 0.0105472 0.347778 0.741176
0.273331 0.00103586 0.396864 0.757843
0.0484359 -0.0135691 0.149839 0.666667
-0.0136139 0.00235443 -0.473672 0.615686
-0.259294 0.00948328 -0.243264 0.615686
0.132267 0.00922491 0.553927 0.905882
-0.356775 0.0216617 0.0369768 0.87549
-0.22404 -0.0160113 0.324126 0.803922
-0.102698 -0.0112679 0.0664387 0.819608
0.186941 -0.00830353 -0.519335 0.901961
-0.199904 0.00641394 0.168945 0.6
-0.112026 -0.00601372 0.0781207 0.769118
-0.235649 -0.00167406 0.492096 0.701961
0.189232 -0.0108373 0.573103 0.940196
-0.125528 0.02064 0.346413 0.606618
-0.100334 -0.00738964 -0.247006 0.607184
-0.0129737 0.00741792 0.571645 0.823529
0.192641 -0.0249023 -0.091482 0.858824
0.34994 0.00625301 -0.062463 0.807843
-0.460519 -0.00693012 -0.273482 0.85098
-0.444205 -0.0167925 -0.00284517 0.795098
-0.253745 0.020459 0.106818 0.737255
0.38942 0.0109426 0.242935 0.933333
0.308757 0.00687134 -0.529929 0.721569
0.246574 -0.0193811 0.0468754 0.717647
0.392078 -0.0151471 0.225605 0.744118
0.191391 -0.0223258 -0.245702 0.8
0.175757 0.00944134 -0.530084 0.929412
0.151995 -0.0106103 0.401212 0.709804
-0.286269 -0.0212436 -0.0726314 0.827451
-0.192089 -0.02078 0.108818 0.635294
0.0140123 0.0044437 0.528131 0.686275
0.0597701 0.00415624 0.544541 0.635294
-0.385204 -0.00705017 -0.397879 0.811765
0.0670237 0.015246 0.430863 0.764706
-0.305676 0.0106984 -0.270705 0.713726
-0.455395 0.011018 -0.28159 0.796078
0.162464 -0.00300282 0.545685 0.960784
0.272771 -0.0254109 -0.125175 0.847059
0.344499 -0.00426331 0.392249 0.811765
-0.300575 0.00332031 -0.284907 0.647059
-0.0363157 -0.0099147 -0.0827432 0.913725
0.0115788 -0.000552399 -0.110493 0.890196
-0.188503 -0.0183791 -0.335656 0.662745
-0.588528 -0.00232987 0.0718304 0.622059
0.00398711 0.0166007 -0.0248539 1
-0.214212 -0.0122666 0.0245915 0.839216
-0.186404 0.0228076 -0.0388033 0.862745
0.380087 0.00456942 -0.421251 0.717647
-0.119295 0.00187702 0.10034 0.7
0.28845 -0.022021 0.148478 0.655637
-0.093612 -0.016993 0.360704 0.635294
-0.23067 0.00987232 0.30817 0.717647
-0.122732 -0.016297 -0.16482 0.741176
-0.0302088 -0.0155544 0.380201 0.686275
0.390682 0.0131741 0.273013 0.92549
-0.0848148 -0.00411569 -0.138287 0.827451
0.106508 0.021359 -0.0523844 0.872549
-0.330259 0.0154387 0.324887 0.721569
0.35801 -0.00835303 0.1427 0.921569
0.205756 -0.00935607 0.450063 0.65098
0.451057 -0.00563519 -0.301069 0.65098
-0.491432 0.00105451 -0.178598 0.717647
0.120271 0.0221745 -0.143196 0.831373
0.149307 -0.00155153 0.573301 0.701961
0.0222322 0.00693239 -0.315809 0.666667
-0.357503 -0.0130138 -0.0321426 0.815686
0.202956 -0.00945625 0.53108 0.972549
-0.428275 0.0129941 -0.0764731 0.984314
-0.262362 -0.00383762 -0.0469625 0.815686
-0.434446 0.00736638 -0.108198 0.929412
-0.341134 0.0110046 -0.393497 0.811765
-0.370204 -0.00324716 -0.304889 0.65098
-0.508466 -0.0018332 0.0121403 0.706863
-0.228212 -0.0135987 0.0552027 0.65098
0.0734841 -0.000605242 -0.0897901 0.886275
-0.177476 0.0164142 -0.065891 0.818627
0.401823 -0.000629106 0.216344 0.937255
0.034489 0.00152703 0.0958949 0.878431
-0.130196 -0.0103769 0.537435 0.698039
-0.270348 0.00836834 0.314536 0.858824
0.225447 -0.00992592 0.293683 0.627451
0.120861 -0.00219627 0.540116 0.894118
-0.0921165 -0.0101049 -0.0176406 0.890196
-0.274361 0.00104402 0.535853 0.796078
-0.34351 0.00294334 0.575624 0.717647
-0.194232 -0.0202846 -0.0981632 0.648039
0.140919 0.0192783 -0.133578 0.611765
0.323941 0.0233467 0.0293827 0.823529
0.0666794 -0.0173248 0.397056 0.701961
0.264125 0.0130021 -0.191719 0.807843
-0.300042 -0.0167992 -0.244011 0.681373
0.120756 -0.00807188 0.138062 0.643137
-0.124076 0.0213357 -0.0549428 0.886275
-0.220727 0.0067898 -0.348053 0.623529
-0.0140414 -0.00674978 -0.496636 0.788235
-0.00884301 0.00716784 -0.182536 0.8
-0.40787 -0.00462816 0.257308 0.8
-0.328284 -0.0154124 -0.285702 0.764706
-0.00703628 -0.0185035 0.394393 0.813725
0.3697 0.00585222 0.27175 0.623529
-0.154514 0.0223728 -0.142764 0.673529
-0.00871087 -0.000318111 -0.19363 0.787255
0.293534 -0.0142645 0.0291766 0.763726
-0.21632 0.000659965 -0.477564 0.669363
-0.0346378 -0.0110804 -0.518603 0.713726
-0.0579189 -0.00568603 -0.524111 0.74902
-0.204131 -0.00968238 0.0998801 0.627451
0.0289305 -0.00667984 -0.117658 0.862745
-0.30604 -0.00349236 0.0612362 0.866667
-0.0752836 0.008572 -0.528339 0.772549
0.149307 -0.0190182 0.3835 0.85098
-0.0582888 0.0135594 -0.109245 0.883333
-0.300545 -0.0076924 0.106049 0.827451
0.326996 -0.0177926 0.155544 0.678431
0.0292244 -0.00794078 -0.137154 0.890196
-0.216121 -0.0111608 0.38408 0.72549
0.455452 0.00308478 -0.319477 0.666667
-0.385969 0.00692434 -0.315261 0.8
0.138273 -0.00714498 -0.520706 0.941176
0.270054 0.0202185 -0.22958 0.635294
0.0721277 -0.0026865 0.0715013 0.843137
-0.0903094 0.00501132 -0.0575749 0.905882
-0.147699 0.00913163 -0.485154 0.623836
0.160579 -0.000667841 -0.242528 0.768627
-0.0263339 -0.0275784 -0.136942 0.878431
-0.220262 -0.0103822 -0.546618 0.721569
-0.486359 0.0149491 -0.104686 0.803922
0.32211 0.00861757 -0.0350626 0.960784
0.282674 0.00198103 -0.515668 0.636275
0.540277 0.0121355 -0.181937 0.87451
-0.0584448 0.00941708 0.0565144 0.87549
-0.158783 -0.0132451 -0.150966 0.702941
-0.0256264 -0.00592715 0.572779 0.678431
0.158309 0.0225185 -0.170033 0.65144
0.0152243 -0.0204751 0.0583429 0.921569
0.239367 -0.00926038 0.479606 0.933333
-0.219869 0.00686344 -0.528628 0.67451
-0.385978 -0.00763043 -0.288523 0.721569
-0.395166 0.0167919 -0.0570379 0.813971
0.277201 0.0175251 0.0104555 0.858824
0.425357 -0.0163623 0.0215994 0.754657
-0.0617332 -0.000641574 0.565392 0.805882
0.448424 0.00329639 -0.332191 0.764706
-0.466075 0.0139602 -0.124864 0.698039
-0.392684 -0.00128132 -0.113365 0.882353
0.115213 -0.0218208 -0.0768771 0.878431
0.0153175 -0.0020608 -0.558824 0.65098
0.292322 0.00953672 0.387781 0.917647
0.317097 0.00939651 -0.380448 0.654902
-0.0505477 0.0190912 -0.243043 0.606311
0.0277615 -0.00783129 0.422762 0.854902
0.0266565 0.0058382 0.0272642 0.968627
-0.00327999 -0.0311489 0.032902 0.911765
-0.280309 0.0237592 -0.05844 0.85098
-0.136038 0.0101867 -0.220305 0.632353
-0.0159963 0.0206149 0.0508202 0.892157
0.277958 0.0146956 0.336969 0.898039
-0.36665 0.0116665 -0.301883 0.658824
0.208855 0.0146379 0.461622 0.741176
0.230975 0.000613037 -0.290742 0.737255
0.272692 0.01097 0.262289 0.65098
0.20896 0.00230113 -0.00387126 0.819608
0.384084 -0.00677546 0.0430783 0.992157
0.227163 0.00683509 0.399028 0.854902
0.293327 0.0203445 -0.155157 0.741176
0.00461971 0.00206725 -0.0854312 0.929412
-0.445825 -0.0107827 -0.0614313 0.815686
-0.339429 -0.017199 -0.259601 0.742157
0.494802 -0.0100487 -0.256301 0.882353
0.271983 -0.0203422 0.240739 0.741176
-0.29306 0.00602891 0.314547 0.866667
-0.298279 -0.0103702 0.0927591 0.886275
-0.0526501 0.0194023 -0.254249 0.643137
0.243114 -0.0109812 0.532921 0.702941
-0.0116861 0.0301457 0.0373813 0.945098
0.351639 -0.00820134 0.188386 0.903922
0.268178 -0.009691 -0.157025 0.737255
0.257122 -0.0153382 0.260101 0.717647
0.132262 -0.0231511 0.0264954 0.882353
-0.589673 0.00955423 0.0521041 0.74902
0.0416741 -0.00153874 0.61959 0.670588
0.240918 -0.0197087 0.280744 0.713726
0.0127237 0.00826823 -0.588835 0.729412
0.26925 -0.0193621 0.129257 0.643137
-0.0595842 -0.00588825 -0.258702 0.792157
-0.277914 0.00723197 -0.333922 0.784314
-0.269407 0.0104901 -0.0129322 0.882353
0.378681 0.00071082 -0.0846137 0.705882
-0.152524 -0.0150969 0.422244 0.627451
0.294004 0.00302456 -0.189415 0.709804
0.372137 0.0207236 0.0971122 0.928431
-0.00598417 0.0135079 0.141713 0.698039
0.231056 0.0229805 0.0428614 0.729412
0.0980687 0.0135472 0.0612547 0.870588
-0.288703 0.00213491 0.0273568 0.839216
-0.205345 0.00466836 0.541885 0.603922
0.16647 -0.0261963 0.0307663 0.827451
-0.474876 -0.00270412 -0.178777 0.94902
-0.104038 -0.0112402 -0.436501 0.643137
0.0487046 0.00975517 -0.466482 0.614216
0.0767376 -0.0207656 0.0369981 0.901961
0.37803 -0.0189274 0.0303204 0.940196
-0.0575519 0.0226008 0.121914 0.611765
-0.35405 0.0173588 0.0394401 0.960784
-0.0228747 0.0259103 -0.202431 0.666667
0.177945 -0.00643588 -0.51365 0.731373
-0.310396 0.0150652 -0.181244 0.678431
0.0665095 0.0065305 -0.466104 0.654902
-0.034342 0.017521 0.134242 0.656863
0.00513087 -0.0312104 -0.0580104 0.992157
-0.413152 -0.0104935 0.0329522 0.973529
0.0931506 0.00474083 -0.0922544 0.866667
-0.236256 0.0200043 0.15825 0.730392
0.0460054 0.00374726 -0.127679 0.890196
-0.329849 -0.0110254 -0.450747 0.741176
0.480421 -0.00160124 -0.289183 0.92549
-0.383769 0.0147598 -0.25908 0.784069
0.0569165 0.0177698 -0.0256065 0.909804
-0.596482 -0.00258136 0.0921156 0.639216
0.184606 -0.0135074 0.330824 0.737255
0.279894 0.00829632 0.258958 0.725735
-0.279356 0.00860881 -0.0832572 0.713726
0.0621902 -0.0220769 -0.239644 0.611765
-0.349026 0.0108642 -0.260322 0.878431
-0.51251 0.0130094 -0.158278 0.746078
0.171537 -0.0221663 -0.25199 0.701961
0.0545274 0.0103387 -0.326321 0.665686
0.31375 -0.0140976 -0.110422 0.729412
-0.217636 -0.0242773 0.0500022 0.819608
-0.511249 0.00409245 0.218891 0.631373
-0.108012 0.00436522 -0.508647 0.780392
0.2095 -0.00998601 -0.447322 0.627451
0.433739 0.00650026 0.13087 0.783333
-0.496115 -0.00498591 0.192704 0.784314
-0.0328875 0.00616592 -0.526992 0.780392
-0.3441 -0.0200805 0.0613441 0.932353
-0.498908 -0.011942 -0.244638 0.747181
-0.286396 0.0144679 0.353405 0.839216
-0.171548 -0.011635 -0.486098 0.619608
0.292841 0.00395077 0.483274 0.741176
0.269767 -0.00424984 0.404181 0.882353
0.305062 -0.00961958 -0.163009 0.65098
0.192766 -0.020502 0.00944009 0.811765
-0.14709 -0.00301239 -0.121163 0.729412
0.10332 0.00571823 0.00243145 0.890196
-0.0352363 -0.027126 0.0980339 0.886275
-0.419583 0.00955686 0.00719606 0.976471
-0.110467 0.027279 -0.0260614 0.890196
-0.471703 0.00903809 -0.283282 0.760784
0.0424924 0.00144934 0.145712 0.647059
-0.213583 0.0223103 -0.0982879 0.74902
-0.28895 0.00215574 0.464183 0.811765
-0.0497739 0.00979044 0.556782 0.882353
0.043962 -0.0129338 -0.0791578 0.910049
0.300082 -0.0234346 -0.146235 0.697059
0.444436 0.00989714 -0.0112042 0.640196
-0.264208 -0.0173045 -0.0775415 0.713726
-0.295104 0.0125805 0.073562 0.878431
-0.0379561 0.0283498 -0.11403 0.909804
0.557951 -0.0104606 -0.149962 0.686275
-0.223058 -0.000539228 -0.518346 0.614706
-0.122126 -0.0166083 -0.171466 0.635294
0.104651 0.0145652 -0.240549 0.752941
-0.00132055 0.00388526 0.521982 0.615686
0.248001 -0.0145342 0.0619354 0.717647
0.191572 0.00507616 -0.247882 0.752941
0.261 0.011684 0.518232 0.772549
-0.224252 -0.0133882 -0.0283853 0.858824
-0.4756 0.00131966 -0.316147 0.690196
-0.164171 -0.0263564 -0.0108424 0.879412
0.245017 3.36085e-06 0.470962 0.623529
0.468717 -0.00242845 -0.247763 0.796078
-0.288026 -0.00490356 0.0507437 0.737255
-0.29103 -0.00117634 -0.273097 0.709804
0.325719 -0.00809093 -0.182262 0.639216
0.127051 0.00500338 0.399947 0.843137
0.444579 -0.000503112 -0.700836 0.705882
-0.137735 -0.024892 0.102182 0.796078
0.275664 -0.0147181 0.0373177 0.80098
-0.552718 -0.00635371 0.15646 0.909804
0.0266627 0.0207722 -0.0654795 0.917647
0.236161 0.0257861 -0.0238653 0.882353
0.0589256 -0.00938924 -0.0458415 0.952941
-0.368269 0.0127266 -0.243566 0.788235
0.303441 -0.000266051 -0.0972249 0.909804
-0.347559 0.00877942 -0.0375787 0.729412
-0.126088 -0.0118654 0.419158 0.615686
0.233256 0.0191854 -0.0428681 0.882353
0.258895 0.0135377 -0.0640646 0.887255
0.0842372 -0.0234284 -0.150504 0.690196
0.178873 -0.00148258 0.545883 0.976471
0.0782202 -0.0160521 -0.213546 0.607843
-0.694107 0.00412232 -0.303342 1.67451
0.293602 0.000570522 0.0467624 0.823529
-0.340186 0.00122389 -0.145181 0.768627
0.316491 0.0100646 0.397109 0.741176
0.268045 0.01064 0.358645 0.866667
0.0647536 0.0136804 -0.0925775 0.886275
0.366865 0.00419377 0.0168313 0.941176
-0.0523398 0.0130384 -0.00832281 0.976471
-0.132523 -0.00142911 -0.525117 0.792157
-0.361383 0.00986367 0.0910139 0.905882
-0.0159166 0.000729631 -0.041304 0.989461
0.279179 0.0160928 0.188266 0.678002
-0.0786264 0.0167151 0.351936 0.658824
-0.0578532 0.0127294 0.322229 0.682353
0.361448 0.000726703 0.0561103 0.921569
-0.24387 -0.00665604 -0.466627 0.772549
0.437649 0.0087998 0.174982 0.764706
-0.151717 -0.0086346 -0.0396837 0.866667
0.133346 -0.00328532 -0.540678 0.847059
0.266466 0.00124126 0.080625 0.680392
-0.0856992 0.0287316 -0.14507 0.882353
-0.389682 -0.0112667 0.301447 0.827451
0.553663 -0.00862445 -0.141903 0.689216
0.202352 0.00288622 0.267597 0.64902
-0.0366259 0.0200789 -0.11764 0.878431
0.239561 -0.00960256 0.00168762 0.843137
0.37679 0.000368801 0.0391789 0.967402
-0.144194 -0.00447985 -0.486524 0.827451
-0.294657 -0.00421875 -0.00453047 0.866667
0.192667 -0.00802715 0.356048 0.913725
-0.00526391 -0.0187423 -0.326978 0.623529
-0.0198099 -0.00520369 0.412056 0.631373
-0.303773 -0.000283118 0.181116 0.721569
-0.101273 0.0190888 0.350241 0.698039
0.276766 -0.0133849 -0.117767 0.858824
-0.0575902 -0.0107514 0.584163 0.886275
0.208408 -0.004591 0.0562293 0.777451
0.242642 0.00697075 -0.0465782 0.878431
0.0176862 0.0127527 -0.186691 0.647059
0.298691 0.0182985 0.15084 0.607843
0.0193843 -0.0142986 0.401094 0.870588
0.0735054 -0.0160328 -0.165181 0.651961
-0.136921 0.00568063 -0.0193098 0.87451
0.210755 0.00399168 -0.233356 0.803922
0.339281 0.0172427 0.0968714 0.729412
0.0870947 0.0168332 -0.301671 0.764706
-0.102656 -0.0039856 -0.524435 0.737255
0.237916 0.00631617 0.385739 0.866667
0.105385 -0.00612183 -0.560174 0.643137
-0.319039 0.00508114 -0.160647 0.653922
0.0914588 0.0194571 -0.157833 0.745098
-0.669096 0.00498927 -0.269503 0.929412
-0.0525056 -0.0241326 -0.0795347 0.909804
0.34939 0.0149053 0.213725 0.894118
0.291987 -0.00552613 -0.149947 0.819608
0.299771 -0.0101782 0.453837 0.667647
0.164613 -0.0230817 0.0623057 0.815686
0.165151 0.0188182 0.0214072 0.832108
0.128496 -0.00120939 -0.139322 0.633333
0.0615559 0.00214025 -0.0511202 0.917647
-0.381225 -0.00548864 -0.200117 0.803922
0.391101 0.00494802 -0.128277 0.909804
-0.277184 0.0140689 0.062825 0.662745
0.0525875 0.00174698 0.586977 0.827451
-0.488819 -0.000878132 -0.22762 0.819608
-0.0334392 -0.00552494 -0.536776 0.862745
-0.374464 -0.0033597 0.0455908 0.980392
-0.393069 -0.00721895 -0.31998 0.854902
-0.580445 0.00550589 0.185428 0.615686
-0.0610415 -0.00265494 0.561634 0.839216
0.172693 -0.00581643 -0.516569 0.894118
-0.0647321 -0.0104857 -0.535911 0.734314
0.444273 -0.0132034 -0.0155399 0.631373
-0.276354 0.0248883 0.10543 0.819608
-0.366215 0.0100186 -0.0781513 0.843137
-0.528169 0.0130403 -0.145374 0.682353
-0.416434 0.00548756 -0.292251 0.747181
-0.286339 0.00534078 0.482039 0.64902
0.154918 0.00939107 -0.0860779 0.854902
-0.0472133 -0.00794034 -0.176909 0.784314
0.375711 -0.0153501 -0.0740599 0.952941
-0.383315 -0.00546797 -0.290065 0.670588
0.213766 -0.00858719 -0.0273186 0.882353
-0.0497542 0.00081575 -0.0920564 0.947549
-0.290482 0.00291488 -0.504461 0.690196
-0.0361411 0.00318399 -0.0551915 0.94902
0.162339 -0.0190215 -0.265365 0.760784
-0.100177 0.00821728 0.546585 0.780392
-0.474098 -0.014571 -0.156283 0.996078
0.385612 0.00136527 0.156859 0.87451
-0.299847 0.0105652 0.0804661 0.882353
-0.299587 -0.00966034 -0.422133 0.6
0.498523 0.0112804 -0.221787 0.882353
0.105206 -0.012201 0.335456 0.670588
-0.0686584 -0.024637 -0.0325354 0.968627
-0.438506 -0.0133656 -0.0584695 0.988235
-0.142358 -0.0217058 -0.0362333 0.878431
0.311921 0.0129926 0.152955 0.694118
0.117085 0.00159883 0.366656 0.937255
0.318674 0.00448448 0.423615 0.738235
-0.0284099 -0.00709708 0.606732 0.823529
-0.338726 0.00505761 -0.421588 0.729412
-0.155481 -0.00542569 -0.379173 0.658824
0.340937 -0.00953337 0.17753 0.779412
0.265697 0.00116273 0.0124646 0.843137
0.217902 0.00460358 0.259599 0.67451
0.165372 0.00796326 0.55563 0.960784
-0.0390462 -0.0108954 -0.289715 0.666667
-0.0111705 8.48363e-05 -0.537402 0.74902
-0.305127 -0.00584309 -0.328756 0.673529
-0.205085 -0.00887774 -0.539421 0.839216
-0.464123 0.00577966 -0.388844 0.694118
-0.0392852 0.00554783 0.544403 0.823529
-0.517904 -0.00266155 0.149743 0.792157
0.255408 0.00180073 0.346317 0.806863
-0.0724922 -0.0118669 -0.123883 0.886275
0.43631 -0.0137918 0.187582 0.639216
-0.503864 0.000773845 0.2345 0.827451
0.428111 0.00754725 0.0584348 0.956863
-0.169264 0.0185875 0.0398499 0.764706
0.0278726 0.0136064 0.0278473 0.901961
-0.372398 0.0132754 0.319696 0.654902
-0.109846 -0.00201127 -0.285109 0.771569
-0.263042 0.00271246 0.0804698 0.827451
-0.278409 -0.00350851 0.33084 0.615686
-0.0800619 0.00652356 0.0712584 0.862745
-0.0645552 -0.0100251 -0.125602 0.862745
-0.0408237 -0.00838064 -0.200274 0.631373
0.293002 -0.0169577 0.267705 0.803922
-0.0132753 -0.0135104 0.152663 0.74902
-0.228633 0.0266281 -0.0931717 0.678431
0.37301 0.0053092 0.174934 0.984314
-0.080206 -0.00401001 0.042658 0.870588
-0.421023 0.0102877 0.038611 0.952941
-0.36824 0.00847704 0.290651 0.6
0.252083 0.0144353 -0.0727278 0.890196
0.511984 0.000248329 -0.202381 0.603922
0.486573 0.005736 -0.241945 0.702206
0.197894 0.00681538 0.458583 0.74902
-0.383172 -0.00926937 -0.424532 0.619608
0.159187 0.0107894 0.544 0.976471
0.247277 -0.0100418 -0.207828 0.796078
-0.10858 -0.0047967 0.112745 0.85098
0.288495 0.0120233 0.194058 0.615686
0.398348 -0.0031073 0.284254 0.648039
-0.0584581 -0.00169599 -0.205248 0.623529
-0.242296 0.00133454 -0.083221 0.821569
-0.129323 -0.0170119 -0.128909 0.701961
0.478985 0.000391494 -0.216458 0.823529
0.196077 0.0257842 0.0794316 0.729412
-0.197524 0.01062 -0.551244 0.682353
0.0733627 0.00396225 0.575315 0.836275
-0.179475 0.0177847 -0.0395929 0.847059
0.282924 -0.00580814 0.503916 0.635294
0.348784 0.000367133 -0.505424 0.811765
0.0882498 -0.00926191 0.0653725 0.870588
0.271831 0.0130056 0.384321 0.909804
0.0383955 0.00723339 -0.20337 0.619608
-0.374193 -0.00254849 -0.163397 0.811765
-0.185479 0.00262341 0.397143 0.6
0.214653 0.0116193 0.0019422 0.847059
-0.398867 0.0133233 -0.236017 0.820588
0.356484 -0.00259962 -0.413258 0.858824
-0.241029 -0.00536589 0.314626 0.811765
0.162721 -0.0160652 0.332649 0.706863
-0.108024 0.0122695 -0.306953 0.709804
0.201318 0.0266676 0.0404389 0.74902
-0.183745 0.0189263 -0.268409 0.635294
0.0381005 -0.0231117 -0.0683539 0.949265
-0.0467361 0.00210934 0.119343 0.792157
-0.3409 -0.000973921 -0.447713 0.780392
0.172482 0.0150421 0.0921252 0.666667
-0.174336 -0.0226472 0.152377 0.671569
-0.0627184 0.00878303 0.327532 0.647059
-0.0696885 0.0046731 -0.0623452 0.909804
0.411566 0.00857389 0.133842 0.964706
-0.520691 0.0102773 -0.229241 0.654902
-0.10091 0.0158088 -0.0371539 0.894118
0.0477684 -0.0195986 0.378715 0.666667
-0.328317 -0.00109901 -0.437922 0.776471
-0.183087 0.00783934 -0.523954 0.788235
-0.306627 0.0104926 -0.168878 0.627451
0.117847 -0.0275793 0.144657 0.682353
0.363132 0.0116781 0.190173 0.87451
-0.369663 -0.00864972 -0.362529 0.8
-0.16756 -0.0186587 0.0403902 0.705882
-0.221963 -0.00429688 0.00477462 0.878431
0.282416 0.00149479 -0.0600024 0.935294
0.335616 0.0102094 0.222731 0.816667
0.330024 0.0153488 -0.0107207 0.886275
-0.0306138 0.00519451 -0.206795 0.72549
-0.0482317 -0.00263838 0.369173 0.627451
0.385968 0.00598007 0.327472 0.701961
0.251106 -0.0152214 0.287968 0.74902
-0.46297 0.00407324 0.207081 0.615686
0.00688297 -0.008205 0.550524 0.988235
0.43504 -0.00404095 -0.0170138 0.831373
0.153787 -0.0253634 -0.0648516 0.841176
0.123771 -0.00934034 -0.31325 0.670588
0.255157 0.0163314 0.205891 0.6
0.396892 0.0179511 0.0199692 0.956863
0.124075 0.00362832 0.386427 0.878431
-0.0412903 0.0152733 -0.322985 0.62549
0.331529 0.015035 0.315991 0.937255
0.423028 0.0109573 -0.297686 0.807843
0.169431 -0.00855767 0.339825 0.752941
0.32793 0.0143266 0.0665605 0.752941
-0.2676 -0.0142826 0.103309 0.776471
0.0205093 0.0252198 -0.0682717 0.992157
-0.491902 -0.0063838 -0.262969 0.745098
-0.372164 -0.00861706 -0.255793 0.768627
0.175795 -0.0178191 0.387867 0.921569
-0.513001 -0.00508475 -0.179227 0.694853
-0.21054 0.000717825 0.217888 0.662745
0.143577 -0.00719725 0.453996 0.615686
-0.236139 -0.00136654 0.521313 0.760784
0.0667946 0.0128175 0.147791 0.615686
-0.276865 0.00400161 0.502458 0.743137
-0.416064 0.0157556 0.0239795 0.94902
-0.0630136 -0.0218237 0.0465912 0.866667
0.282056 0.017134 -0.175537 0.670588
-0.101561 -0.00294664 -0.176539 0.780392
-0.157366 0.00289644 -0.589177 0.701961
-0.394367 -0.00823171 -0.264696 0.791176
0.112113 -0.00815633 0.377222 0.8
0.464723 0.00371744 -0.384853 0.85098
0.214363 -0.0114079 -0.478448 0.870588
0.468857 0.010629 -0.290254 0.772549
-0.087608 0.000329572 -0.0962176 0.886275
0.270931 -0.00456558 0.322452 0.862745
0.0880269 0.0266896 -0.0276207 0.909804
-0.437675 -0.00994719 -0.0825224 0.984314
0.0374779 -0.0137293 0.454794 0.803922
0.313118 0.00662438 -0.505257 0.640441
-0.380672 0.000915204 0.307925 0.737255
-0.33361 -0.0164182 0.0366693 0.823529
-0.202639 -0.0223534 -0.0435605 0.854902
-0.407802 -0.00429205 0.275083 0.709804
0.0243958 0.00481491 -0.050699 0.984314
0.29377 0.0126626 0.40547 0.92549
-0.153229 -0.0265722 0.0574436 0.811765
-0.0983895 -0.0127041 0.383596 0.657843
-0.380489 0.00619383 -0.337134 0.72549
0.410755 0.00302287 -0.350644 0.827451
0.132033 -0.00873521 0.369849 0.8
-0.238269 -0.00783021 0.373699 0.603922
0.173741 -0.0158212 -0.0746269 0.823529
-0.286054 0.00950218 -0.0658342 0.780392
-0.00966775 0.00132276 -0.301358 0.745098
0.33434 -0.0143607 0.0790488 0.662745
0.359019 -0.00325454 0.308621 0.921569
0.0786417 -0.0154463 0.0757021 0.843137
-0.415059 0.00335809 -0.412163 0.648039
-0.415837 0.0123466 -0.225333 0.752941
0.272569 -0.00639356 -0.128145 0.615686
0.208306 -0.00961588 -0.442502 0.94902
-0.355635 -0.00281325 -0.234713 0.870588
0.2255 0.0134062 0.420479 0.854902
0.0154087 0.0137473 -0.326587 0.694118
-0.27822 -0.00722211 -0.0451003 0.772549
-0.449449 0.0102199 0.0676231 0.717647
0.0854012 0.020844 -0.29343 0.729412
0.135577 0.00039357 0.518284 0.972549
-0.414485 0.0129234 -0.218576 0.741176
0.289585 -0.00747192 0.208492 0.631373
0.165543 -0.0112962 0.032383 0.826471
-0.492125 0.0113364 -0.0537132 0.811765
-0.477786 -0.0133723 -0.085908 0.847059
-0.090375 -0.00319358 0.0500956 0.854902
-0.191083 0.0162534 -0.229173 0.737255
-0.0925718 -0.014147 -0.27024 0.730392
0.110799 0.0146509 0.433146 0.662745
0.353977 0.010529 -0.37146 0.788235
-0.289544 0.0081324 0.334291 0.768627
0.223094 0.00500763 0.41121 0.898039
0.253657 0.00738037 -0.458221 0.882353
-0.314918 -0.00681381 -0.350349 0.733333
-0.285123 0.00638934 0.334214 0.658824
-0.314053 -0.00727398 -0.345031 0.656863
0.130472 -0.00205961 0.557411 0.627451
-0.106426 -0.0107817 -0.602458 0.647059
0.406891 -0.00796604 -0.0561622 0.876471
-0.140666 -0.00315106 -0.0568828 0.879412
-0.448752 0.00616376 0.215133 0.666667
-0.276184 0.00537218 -0.496998 0.796078
0.350661 0.00996086 -0.479279 0.631373
0.174242 -0.01184 -0.482964 0.866667
0.442109 -0.00440459 -0.299575 0.670588
-0.212927 -0.00234932 -0.0331675 0.852941
0.24971 0.0209775 -0.208752 0.737255
-0.346738 -0.0114275 0.257856 0.636275
-0.068425 -0.0220686 -0.11848 0.870588
0.165802 0.00770803 0.318447 0.686275
0.00538194 -0.00351198 0.0899197 0.835294
0.142809 0.0236629 -0.0583071 0.870588
-0.00366341 0.0276554 -0.0964304 0.917647
0.186386 -0.0183482 0.296524 0.737255
-0.0982564 0.0119592 -0.156446 0.752941
0.372067 0.00234934 0.33785 0.772549
0.07012 0.0270776 -0.249089 0.721569
-0.302101 0.00837351 0.128174 0.702941
-0.0876808 0.00223488 -0.498159 0.710784
0.112593 -0.00458828 0.366951 0.847059
-0.360409 -0.00408671 -0.23401 0.794118
0.0857444 -0.00150377 -0.501424 0.694118
-0.0620278 -0.0143143 -0.495366 0.6
-0.337727 -0.0179584 0.0908643 0.921569
0.37555 -0.00192225 0.319325 0.891176
0.0688745 0.0095811 -0.498278 0.839216
-0.242523 -0.00451815 -0.0562875 0.870588
0.0575192 0.00495243 -0.469899 0.619608
0.0106188 -0.000523829 -0.141702 0.878431
-0.324214 0.00630549 0.139629 0.744056
-0.437225 -0.0114283 -0.327127 0.701961
0.381811 -0.0100442 0.129183 0.980392
0.292595 -0.0113357 -0.436351 0.956863
-0.191084 -0.014277 0.207439 0.635294
-0.315056 -0.0089803 -0.320143 0.694118
0.379791 -0.0202602 0.0381433 0.941176
-0.293568 0.00260938 -0.299675 0.74902
-0.0986332 0.00997658 -0.553929 0.835294
-0.122857 -0.0221942 -0.278256 0.770588
-0.130462 0.000299406 -0.532797 0.792157
-0.0390291 0.00288712 0.0829535 0.843137
0.00200152 -0.0145805 -0.0348713 0.994118
0.0751201 -0.0312199 0.0542248 0.894118
-0.417175 0.0118333 0.257626 0.85098
-0.236945 -0.000580919 -0.092123 0.611765
-0.210021 -0.0197016 0.0547245 0.796078
-0.0527049 0.0163672 0.0844242 0.843137
-0.429978 -0.000601392 -0.0570369 0.992157
0.22547 -0.00616182 -0.526668 0.882353
0.230527 0.00829106 -0.519422 0.945098
-0.195281 -0.00765125 -0.257858 0.662745
-0.441881 -0.0130896 0.0157959 0.608088
0.134675 -0.00128173 0.0312481 0.822549
0.0276879 -0.0155085 0.432529 0.658824
-0.266414 -0.0174593 -0.218373 0.733333
0.402127 0.0126649 0.144509 0.984314
0.365179 0.00908377 -0.425643 0.726471
0.0370975 0.0105301 -0.511692 0.737255
0.340674 -0.0030493 0.176511 0.956863
0.0313197 -0.0180347 0.327113 0.721569
-0.105278 0.000612263 0.050428 0.854902
-0.181725 0.0122261 -0.0500885 0.866667
-0.311664 -0.0027238 -0.433959 0.721569
0.0116308 0.00435787 -0.555075 0.788235
-0.072888 -0.00439517 -0.053893 0.921569
0.233144 -0.00390914 -0.525481 0.866667
0.0353331 0.0183096 0.356799 0.803922
0.39587 0.00749835 -0.0175764 0.952941
-0.113463 0.018708 -0.208718 0.603922
-0.0816957 0.0135788 -0.263898 0.729412
-0.348007 -0.0087469 -0.233985 0.854902
-0.302749 -0.0112456 0.0906001 0.870588
0.343172 0.0160811 0.228336 0.890196
-0.349073 0.00649473 -0.213629 0.788235
-0.168547 0.00800721 -0.141206 0.737255
0.126559 0.0157323 0.0881066 0.792157
-0.397354 0.00898111 0.254708 0.603922
-0.0581074 -0.0175113 -0.0213535 0.921569
0.0973538 -0.0103792 -0.518888 0.827451
-0.428377 -0.00334976 -0.266816 0.807843
0.0309441 -0.0170495 -0.323569 0.705882
-0.0495189 0.00501164 0.110477 0.843137
0.341539 -0.00495703 0.0565255 0.811765
0.287295 -0.0187424 0.132375 0.623529
-0.0158364 0.0243339 0.11255 0.870588
-0.133003 -0.0136084 -0.0919234 0.811765
0.38592 0.00899992 -0.385729 0.845098
0.181971 -0.0284749 -0.0596289 0.815686
0.226033 -0.00986704 0.502929 0.747794
-0.0976962 0.0114634 -0.0333216 0.913725
0.198533 0.000842576 0.537627 0.972549
0.27716 0.0141525 -0.187267 0.74902
-0.269748 -0.0119931 0.488677 0.737255
0.357511 -0.00531566 -0.0723911 0.894118
0.0477069 0.00349669 -0.499954 0.752941
-0.191467 -0.0149727 -0.265881 0.615686
-0.123852 0.00626743 -0.064844 0.886275
0.44284 -0.0101224 -0.254256 0.705882
-0.489696 0.00299646 -0.264779 0.666667
0.0251035 -0.00551896 0.0774801 0.901961
0.171485 -0.0100069 -0.280757 0.631373
-0.267582 0.0082458 0.520711 0.843137
-0.170113 -0.00513203 -0.0811212 0.764706
-0.0449828 -0.00373576 0.358542 0.666667
-0.355167 -0.0164924 0.113298 0.776471
0.348378 0.00974936 0.107818 0.843137
0.260076 -0.021579 -0.152529 0.737255
-0.128225 0.00308957 0.0802846 0.827451
-0.448859 0.00163823 -0.237066 0.831373
0.0530873 -0.00265117 -0.560719 0.756863
0.253152 0.0189065 -0.0186949 0.847059
0.234808 -0.00213784 -0.530016 0.886275
0.263771 0.0113922 0.371721 0.835294
-0.0905594 0.00829751 0.116979 0.72549
0.382068 -0.000967637 0.236968 0.956863
-0.243656 0.0175336 0.168652 0.662745
-0.272529 0.00236635 -0.331999 0.71201
0.0816338 0.0292391 -0.137603 0.835294
-0.298588 0.000963849 -0.328712 0.654902
-0.0862369 0.000524478 -0.096865 0.901961
0.231451 -0.0179743 0.0457321 0.788235
0.0538851 0.00422603 0.381559 0.811765
0.426417 0.0052601 -0.0335745 0.662745
0.0527009 -0.00217213 -0.189678 0.686275
-0.421061 -0.0166216 -0.118647 0.894118
-0.157922 -0.00153102 -0.486425 0.74902
-0.0536201 -0.00445286 -0.542605 0.815686
-0.405689 0.000700097 0.0257506 0.760784
-0.242208 0.0071181 0.177137 0.668627
0.00325731 -0.0225003 -0.0576858 1
0.163053 0.0193922 -0.296852 0.623529
-0.242879 -0.00686913 -0.504133 0.752941
-0.174623 -0.00705591 0.349657 0.654167
0.0315503 -0.00638783 -0.0180754 0.980392
0.0393874 0.00933727 -0.0370265 0.929412
0.365622 -0.00795402 -0.37899 0.801961
0.48612 0.00434483 -0.332104 0.905882
-0.478083 -0.0107968 -0.309035 0.710784
0.0290515 0.0086164 -0.166036 0.839216
0.132059 -0.0215192 0.342537 0.752941
-0.0424453 -0.00432701 -0.34647 0.603922
0.228505 3.11423e-05 0.530327 0.74902
0.498917 0.000150075 -0.270832 0.669118
-0.208267 -0.0017452 0.547444 0.737255
0.315103 -0.0229485 -0.0889929 0.945098
0.0134149 -0.011588 -0.301417 0.647059
-0.415393 -0.00956828 -0.0214475 0.945098
0.0486021 0.0260413 0.165919 0.619608
-0.111886 -0.00555037 -0.16897 0.741176
-0.237898 -0.0227463 -0.0538746 0.835294
0.132591 0.00741733 0.403738 0.92549
0.177082 0.0051816 0.357736 0.848284
-0.421703 -0.0146293 0.270244 0.767647
0.0976898 0.00970287 0.516934 0.778431
0.446158 -0.00381664 0.20389 0.751961
-0.359209 0.00243461 0.29889 0.74902
0.238373 -0.00436494 -0.0490729 0.886275
-0.0313473 0.000162424 0.40091 0.6
-0.130545 0.00336719 -0.129132 0.733333
0.0480207 0.00310786 -0.48591 0.686275
-0.234704 -0.0164852 0.179443 0.8
-0.514411 -0.0107885 0.137419 0.753922
-0.050899 0.0100243 0.332528 0.639216
0.330231 -0.00170947 0.0463494 0.827451
0.276059 -0.00685853 0.364992 0.87451
0.0371918 0.0124086 -0.482126 0.666667
0.232754 0.00511146 0.385002 0.870588
0.25573 0.0237509 -0.0576399 0.890196
-0.427641 -0.00739647 -0.313449 0.815686
-0.433297 -0.00210686 -0.432417 0.654902
-0.418582 0.00999412 -0.092015 0.886275
0.205088 -0.00933291 0.495 0.776471
0.35247 -0.00193627 0.407164 0.603922
-0.285181 -0.0200075 0.0436909 0.791176
-0.072144 0.015171 0.355342 0.670588
-0.406346 -0.00550546 -0.228465 0.8
-0.292522 -0.00725724 -0.411377 0.619608
-0.198662 -0.010464 0.555794 0.728431
0.532127 0.00587603 -0.201639 0.673529
0.432121 -0.00809779 -0.079661 0.67451
-0.151632 -0.0128922 0.123011 0.631373
-0.0486385 -0.0262617 -0.0455182 0.992157
0.00810945 0.00871608 0.592101 0.901961
0.340031 0.000933148 -0.0435877 0.854902
-0.0880834 -0.00724092 0.133437 0.811765
0.330142 -0.0160892 -0.0278763 0.929412
-0.151791 -0.0140541 0.404504 0.737255
0.208327 -0.0189215 -0.288525 0.690196
0.11257 0.0292836 0.103882 0.74902
0.240695 0.0117331 0.23809 0.615686
-0.298683 -0.0249253 -0.00653551 0.854902
-0.234217 -0.022611 0.120038 0.643137
-0.23426 -0.0171816 0.341898 0.788235
0.163416 -0.00610817 0.164251 0.670496
-0.463667 -0.0121426 -0.279701 0.737255
-0.0247318 0.0243667 0.146676 0.6
0.294389 0.00504075 0.207945 0.690196
0.303431 0.00350538 -0.498418 0.796078
-0.429167 -0.00727222 0.278128 0.796078
0.081899 -0.017159 -0.0446386 0.901961
0.394672 0.0113068 0.284579 0.698039
-0.0320063 0.0125954 -0.301494 0.698039
0.0979956 0.0189166 -0.0483421 0.905882
-0.184287 0.000557948 -0.515926 0.788235
-0.154189 0.00367796 -0.0559583 0.87451
0.0818042 0.0178996 0.0376925 0.890196
0.312478 0.00599199 -0.174322 0.894118
-0.136752 0.0202545 0.00170752 0.87451
-0.285062 -0.0245493 -0.0262195 0.85098
-0.383049 0.0100663 -0.0460338 0.901961
-0.226479 0.0203381 0.0301069 0.705882
-0.0457304 0.0211929 0.0182681 0.968627
-0.431785 -0.00487813 0.034102 0.92549
0.119495 0.00824097 0.579931 0.745098
0.282212 0.00207342 0.473683 0.706311
-0.444106 0.0051444 -0.068337 0.92549
-0.0923847 -0.024394 -0.126442 0.863725
-0.0341425 0.0105156 0.0998587 0.844118
-0.585696 0.0072603 -0.258748 0.843137
-0.453921 0.00441238 -0.201636 0.960784
-0.25733 0.0188605 -0.234836 0.611765
-0.0319737 0.000470804 -0.0623102 1
0.263385 -0.00682799 0.474139 0.869118
-0.35059 -0.003492 -0.0876315 0.69902
0.379905 -0.00233265 0.372366 0.614706
-0.386661 0.00997383 0.0616452 0.886275
-0.171505 -0.00721161 0.344455 0.603922
0.466637 0.00743579 0.185678 0.67451
-0.261871 -0.00838411 0.514543 0.647059
0.109604 0.0105125 -0.0175106 0.894118
-0.0492999 0.0184958 -0.139362 0.886275
-0.247474 0.016709 -0.23755 0.603922
0.14515 0.011644 -0.292949 0.776471
0.376944 -0.0159677 -0.00656691 0.921569
0.118872 -0.0130031 -0.27873 0.662745
-0.0409872 -0.000347929 -0.211461 0.687255
-0.0614982 0.00923932 0.560697 0.631373
-0.526589 -0.00232837 0.00261935 0.611765
0.120063 -0.00135281 -0.474453 0.701961
0.0320639 0.027328 -0.0169835 0.972549
-0.303157 -0.00911293 -0.376594 0.760784
0.138009 0.0166595 -0.00435992 0.886275
-0.359477 -0.00423214 -0.368881 0.74902
0.257169 -0.0198183 -0.076988 0.819608
0.331359 0.0104184 0.0692523 0.760784
0.261035 -0.00445343 -0.474991 0.843137
0.297707 -0.00400064 -0.172296 0.964706
-0.0968138 0.029993 -0.11127 0.862745
0.212394 0.0229619 0.0828051 0.698039
0.298232 -0.00300263 -0.181444 0.929412
0.418451 -0.0120313 0.026518 0.945098
-0.0771426 0.024355 -0.259728 0.631373
-0.246539 -0.00444609 -0.338323 0.682353
-0.148002 0.00514765 -0.510298 0.722549
-0.016319 -0.0064314 0.372243 0.619608
-0.357748 0.0101683 0.120854 0.615686
-0.246422 -0.0166589 -0.0131697 0.882353
-0.384576 -0.00301721 0.26596 0.701961
0.2679 -0.00812491 0.333994 0.886275
-0.122755 0.00614351 -0.337769 0.6
-0.469489 0.0137726 -0.0228178 0.631373
-0.22961 -0.0159318 0.144604 0.623529
0.275046 0.00883403 0.12403 0.623529
-0.346824 -0.00589222 -0.388555 0.639216
-0.249209 -0.0106351 0.19783 0.667647
-0.161141 0.00299369 -0.565254 0.752941
0.229395 -0.0131221 0.0174595 0.843137
0.059136 0.00890134 0.345303 0.709804
0.164672 0.0112484 0.354401 0.867647
0.130632 -0.00444749 0.149362 0.655882
-0.304574 -0.00472597 -0.29281 0.686275
-0.0739896 -0.00184926 0.0892604 0.843137
0.228828 -0.00374011 0.530567 0.831373
0.261976 -0.0171732 -0.0906205 0.701961
-0.260761 -0.0182705 -0.281429 0.658824
0.226941 -0.00345875 0.440214 0.85
-0.444437 0.00739303 -0.0650446 0.996078
0.410877 -0.0170557 0.205682 0.956863
0.195378 -0.00195141 0.438384 0.670588
-0.251084 -0.00889014 0.547072 0.745098
0.143874 0.0221867 -0.074151 0.882353
0.0735359 0.00974966 0.58799 0.67451
-0.0666163 -0.00238111 -0.518834 0.776471
-0.349048 0.0212128 0.0117368 0.960784
0.213531 -0.000735631 0.0897082 0.682353
0.259171 -0.0129186 0.361395 0.764706
-0.272127 0.0109768 -0.249674 0.760784
0.151489 -0.00265274 -0.501517 0.92549
-0.401323 0.0100279 -0.136673 0.839216
-0.00594495 -0.00950357 -0.0525388 1
-0.211751 0.0231936 0.219295 0.6
0.103704 0.0101033 0.0478372 0.823529
-0.427465 -0.0136076 -0.0943868 0.930392
-0.431375 0.0079302 -0.423657 0.722549
0.460706 0.0113146 -0.239992 0.827451
0.40155 0.0126443 0.0182088 0.960784
0.214573 -0.00588904 -0.00870054 0.882353
-0.199821 -0.0113899 -0.0191226 0.854167
-0.495665 0.00766456 -0.241449 0.654902
0.0022873 -0.0117188 0.123357 0.701961
0.12347 -0.0250514 -0.0932998 0.815686
0.436491 -0.0166523 -0.0616784 0.690196
0.170155 0.0050178 -0.532972 0.894118
0.133028 0.00239513 0.437864 0.643137
0.275205 -0.00410665 0.471482 0.831373
0.334939 0.00343292 0.428916 0.768627
0.18512 -3.89572e-05 0.496352 0.831373
0.35975 0.0168836 0.0599353 0.917647
0.101476 0.00575547 -0.233235 0.658824
0.0462226 -0.0261175 0.157244 0.696569
0.281808 -0.0136808 0.0198371 0.817647
-0.056712 -0.009924 -0.541875 0.796078
0.319956 -0.0064751 0.429995 0.862745
0.177183 -0.00309176 0.544282 0.827451
0.197037 0.00833215 0.0891797 0.671569
-0.209019 -0.0133695 -0.371573 0.65
0.145087 0.0229517 0.111786 0.760784
0.246645 -0.00760443 0.0600739 0.658824
-0.089825 -0.00515693 0.568662 0.75
0.231902 0.00562824 -0.251064 0.8
0.44808 0.00189901 0.0013446 0.784314
-0.408573 0.010477 -0.278069 0.780392
-0.591156 0.00369192 0.0844915 0.619608
0.22776 -0.00667254 -0.437854 0.603922
0.0126643 -0.010669 0.0334748 0.94902
-0.160974 0.00635115 -0.0138067 0.870588
-0.265969 0.0012634 0.0537438 0.831373
0.433336 -0.00668342 0.223465 0.792157
0.366013 -0.0170282 0.280025 0.917892
0.453465 0.00556594 0.0529497 0.670588
0.0820546 -0.0160217 -0.25524 0.74902
0.234418 0.0138494 0.368159 0.819608
-0.054965 0.00454955 0.435992 0.643137
0.159672 0.012258 -0.265735 0.737255
0.184811 -0.00502747 0.552706 0.843137
0.0806347 -0.00600727 0.57268 0.831373
-0.35268 0.00787944 0.00782556 0.701961
-0.00538936 -0.0195196 0.0964517 0.823529
0.10837 0.0161015 -0.0341542 0.882353
-0.0118843 -0.00851773 -0.560857 0.731373
0.11438 -0.0160702 -0.0332979 0.886275
0.185071 0.0093994 0.574389 0.831127
0.309435 0.0134388 -0.068025 0.952941
-0.548195 0.00210476 0.162702 0.784314
0.0678494 0.0184572 0.327869 0.639216
-0.0275659 0.000873613 0.123093 0.710784
-0.330038 -0.0212771 0.172386 0.603922
0.0767258 -0.0108245 0.320497 0.615686
-0.324971 -0.00285523 -0.284796 0.760784
-0.251658 -0.0198244 0.140055 0.675735
0.283927 -0.00143198 0.453717 0.801225
0.470445 -0.00850827 -0.299668 0.886275
0.114147 -0.0063474 0.569452 0.72549
0.208653 -0.0112211 -0.081216 0.678431
0.297398 0.0134123 0.0825071 0.686275
0.393241 -0.00669089 0.109436 0.890196
-0.146423 0.00684313 -0.078213 0.861765
-0.112355 0.00418183 -0.390069 0.603922
-0.380738 -0.0126357 -0.0218876 0.878431
0.373293 0.003198 0.0924959 0.960784
-0.293555 0.000609895 -0.482798 0.682353
-0.131479 -0.0015764 0.568948 0.823529
-0.0112636 0.00373265 0.588193 0.878431
-0.347165 0.00577284 0.340282 0.665686
0.0798923 0.0166236 0.0466452 0.85098
-0.185688 -0.0061521 -0.553478 0.733333
-0.340436 -0.0103854 0.302143 0.65
0.0243119 0.00555791 0.420631 0.705882
0.406981 0.00954601 -0.0155429 0.709804
0.281922 -0.0244469 0.00991187 0.823529
-0.168477 -0.0160644 -0.361207 0.619608
-0.0583866 -0.00980658 0.101759 0.882353
0.0277327 -0.00983848 -0.514221 0.819608
0.11858 -0.00347159 -0.0172687 0.888235
-0.315764 -0.00220038 0.0939691 0.864706
-0.334629 0.0170667 -0.338408 0.752941
0.237475 -0.00395755 -0.445482 0.87451
0.0871034 0.0125796 -0.295466 0.759804
-0.349045 -0.00411586 0.0273842 0.847059
-0.280834 0.00440842 0.0883058 0.862745
0.216871 -0.0114607 0.452554 0.745098
0.339137 -0.00249672 0.354004 0.964706
-0.270089 0.0131798 -0.483732 0.776471
-0.108999 -0.00962616 -0.56154 0.758824
-0.3021 -0.0151295 0.152233 0.698039
-0.348529 -0.00537768 -0.278157 0.74902
0.291341 0.0130592 0.183051 0.623529
-0.18419 -0.0217538 0.0589116 0.781373
0.433625 -0.0107769 0.094058 0.851961
-0.384239 0.00656696 -0.421302 0.807843
-0.218089 0.012214 -0.00485489 0.853922
-0.201474 -0.0263305 0.0618888 0.792157
-0.316591 0.00658125 0.309234 0.678431
-0.128551 0.0113678 -0.410442 0.615686
-0.185035 -0.0189175 -0.0517963 0.831373
-0.463832 -0.0113277 0.0697135 0.72549
-0.08036 -0.00996886 -0.263102 0.807843
0.232156 -0.00040795 -0.252553 0.658824
-0.0413853 -0.00289846 -0.223937 0.619608
-0.458652 -0.0105196 -0.286685 0.804902
-0.256751 -0.00739149 -0.262063 0.638404
0.0446574 -0.0179796 -0.174013 0.784314
0.226666 0.021109 0.0606169 0.713726
-0.219348 -0.0187341 0.123875 0.619608
-0.530062 -0.000551368 0.144595 0.87451
0.0339547 0.0152877 -0.169418 0.755882
0.297331 -0.0223583 0.048881 0.8
0.35618 -0.00240525 -0.0279998 0.956863
-0.406685 -0.00395025 -0.0614435 0.854902
-0.0021443 0.00368343 -0.583088 0.6
0.0913096 0.00385151 0.421721 0.74902
0.447116 -0.00112347 0.137988 0.768627
-0.0358816 0.0112654 0.0441054 0.907721
0.166977 -0.00706326 0.259954 0.615686
0.303784 0.0160991 -0.157294 0.933333
-0.392772 0.0182358 -0.104054 0.762745
-0.474013 -0.00748194 -0.0802348 0.716667
0.297861 -0.0150129 -0.121312 0.717647
0.0619914 0.00551842 0.574318 0.781127
0.14829 0.017868 0.416349 0.709804
-0.0498057 -0.0261727 0.13063 0.737255
0.17044 0.0265529 0.0252709 0.823529
0.474905 -0.00314784 -0.298601 0.909804
-0.171371 -0.0153166 0.086299 0.678431
0.0259726 -0.0177434 -0.0938284 0.917647
-0.0623712 -0.0029271 -0.543644 0.819608
-0.420838 0.0158807 -0.153759 0.87451
0.332561 -0.0143811 -0.0830689 0.954902
0.316857 -0.00432418 0.406735 0.835294
-0.321504 -0.00959986 -0.187794 0.682353
-0.34131 0.00160863 -0.268286 0.772549
0.0912319 -0.0101817 0.516141 0.603922
-0.478232 0.00670575 -0.0130515 0.792157
-0.344312 0.00623265 -0.303688 0.635294
0.11645 -0.0099607 0.576659 0.909804
-0.231649 0.00305191 -0.503857 0.827451
-0.316081 -0.0123018 0.00614977 0.826471
0.168519 -0.0122327 0.0433209 0.797059
-0.124836 -0.0145122 0.0490144 0.768627
0.348225 -0.0081168 -0.144526 0.811765
-0.343611 0.0182579 0.0217878 0.972549
0.213118 -0.0107502 0.330883 0.858824
-0.178153 0.0135577 -0.402678 0.603922
0.137153 0.0032347 0.470369 0.690196
-0.356659 0.0114827 -0.428941 0.776471
-0.0478669 -0.0163495 0.356799 0.698039
0.399166 -0.00703015 0.0100979 0.968627
-0.293239 0.00587495 -0.364241 0.705882
0.183451 -0.016452 -0.0290547 0.866667
0.316606 -0.0100166 0.475772 0.67451
-0.214906 -0.0123857 0.0621416 0.8
-0.424649 -0.00672586 -0.237095 0.87451
0.26106 -0.00443164 -0.542647 0.827451
0.132948 -0.00376734 -0.508078 0.909804
0.443166 0.0101459 0.157119 0.74902
0.330562 -0.00650559 0.150104 0.776471
-0.35124 -0.000234278 -0.0962741 0.8
-0.10223 -0.0235906 -0.0954247 0.854902
0.0253398 -0.00250249 0.420598 0.788235
0.317965 0.0229074 -0.0833252 0.784314
-0.196025 -0.0186231 0.0648862 0.756863
-0.263247 -0.00903625 -0.350876 0.690196
0.329774 0.00642982 -0.0397932 0.929412
0.0695358 -0.010822 -0.504488 0.858824
-0.422658 0.00538049 -0.191762 0.768627
0.000164908 -0.00083091 0.0710788 0.882353
0.380123 -0.00943377 0.250598 0.722794
0.228818 0.0110729 0.277221 0.6
0.0186925 0.00609438 -0.0916818 0.933333
-0.273036 0.0238088 0.00308661 0.847059
-0.152604 -0.00783313 -0.557418 0.692647
-0.203301 0.028465 0.0877934 0.627451
